-0.030055955052375793 1.9630773451240202e-08 -0.03435945883393288
-0.021873751655220985 1.4388305658030731e-08 0.10520412772893906
-0.02947843447327614 0.005863647907972336 -0.03435945883393288
-0.02145344763994217 0.004267367534339428 0.10520412772893906
-0.027768069878220558 0.011501939035952091 -0.03435945883393288
-0.020208707079291344 0.008370728231966496 0.10520412772893906
-0.024990595877170563 0.016698215156793594 -0.03435945883393288
-0.018187347799539566 0.012152408249676228 0.10520412772893906
-0.021252743899822235 0.021252786740660667 -0.03435945883393288
-0.015467068180441856 0.015467071905732155 0.10520412772893906
-0.016698163002729416 0.02499062567949295 -0.03435945883393288
-0.012152392417192459 0.018187347799539566 0.10520412772893906
-0.011501878499984741 0.02776808850467205 -0.03435945883393288
-0.008370711468160152 0.02020869217813015 0.10520412772893906
-0.005863583646714687 0.029478436335921288 -0.03435945883393288
-0.004267347976565361 0.02145342342555523 0.10520412772893906
-2.1967379026932576e-09 0.02755141630768776 -0.04258035123348236
0.0053750136867165565 0.027022020891308784 -0.04258035123348236
0.01054347027093172 0.025454185903072357 -0.04258035123348236
0.015306748449802399 0.02290816232562065 -0.04258035123348236
0.019481796771287918 0.01948178932070732 -0.04258035123348236
0.022908171638846397 0.015306743793189526 -0.04258035123348236
0.025454193353652954 0.010543464682996273 -0.04258035123348236
0.027022026479244232 0.005375008098781109 -0.04258035123348236
0.027551421895623207 -6.496127191724099e-09 -0.04258035123348236
0.02702202834188938 -0.005375021602958441 -0.04258035123348236
0.025454195216298103 -0.010543475858867168 -0.04258035123348236
0.022908171638846397 -0.015306755900382996 -0.04258035123348236
0.019481796771287918 -0.019481806084513664 -0.04258035123348236
0.01530674658715725 -0.022908182814717293 -0.04258035123348236
0.010543465614318848 -0.025454208254814148 -0.04258035123348236
0.005375007167458534 -0.027022041380405426 -0.04258035123348236
-1.117413095386155e-08 -0.027551431208848953 -0.04258035123348236
-0.005375029984861612 -0.02702203579246998 -0.04258035123348236
-0.010543487034738064 -0.025454197078943253 -0.04258035123348236
-0.015306766144931316 -0.022908171638846397 -0.04258035123348236
-0.019481811672449112 -0.01948179118335247 -0.04258035123348236
-0.022908184677362442 -0.015306741930544376 -0.04258035123348236
-0.025454208254814148 -0.0105434600263834 -0.04258035123348236
-0.027022037655115128 -0.005375000648200512 -0.04258035123348236
-0.027551425620913506 1.8027428438927018e-08 -0.04258035123348236
-0.027022026479244232 0.005375036038458347 -0.04258035123348236
-0.025454185903072357 0.010543493553996086 -0.04258035123348236
-0.022908154875040054 0.01530677080154419 -0.04258035123348236
-0.019481776282191277 0.01948181353509426 -0.04258035123348236
-0.015306721441447735 0.022908184677362442 -0.04258035123348236
-0.01054343767464161 0.0254542026668787 -0.04258035123348236
-0.0053749773651361465 0.027022026479244232 -0.04258035123348236
2.4035038403980025e-09 0.019383862614631653 -0.05001828819513321
0.0037816078402101994 0.019011404365301132 -0.05001828819513321
0.007417887914925814 0.017908351495862007 -0.05001828819513321
0.010769102722406387 0.016117090359330177 -0.05001828819513321
0.013706467114388943 0.01370646245777607 -0.05001828819513321
0.016117103397846222 0.01076909527182579 -0.05001828819513321
0.017908362671732903 0.007417879533022642 -0.05001828819513321
0.01901141367852688 0.0037816001567989588 -0.05001828819513321
0.01938387006521225 -4.595417379960054e-09 -0.05001828819513321
0.01901141367852688 -0.003781608771532774 -0.05001828819513321
0.0179083663970232 -0.007417887914925814 -0.05001828819513321
0.016117103397846222 -0.010769105516374111 -0.05001828819513321
0.013706467114388943 -0.013706468977034092 -0.05001828819513321
0.010769101791083813 -0.016117103397846222 -0.05001828819513321
0.007417883723974228 -0.01790836825966835 -0.05001828819513321
0.0037816031835973263 -0.019011422991752625 -0.05001828819513321
-3.912564938701735e-09 -0.019383873790502548 -0.05001828819513321
-0.0037816104013472795 -0.019011421129107475 -0.05001828819513321
-0.007417893037199974 -0.017908360809087753 -0.05001828819513321
-0.010769106447696686 -0.016117097809910774 -0.05001828819513321
-0.013706471771001816 -0.01370646059513092 -0.05001828819513321
-0.016117101535201073 -0.010769093409180641 -0.05001828819513321
-0.017908364534378052 -0.007417877670377493 -0.05001828819513321
-0.019011415541172028 -0.003781594568863511 -0.05001828819513321
-0.01938386633992195 1.265818649898165e-08 -0.05001828819513321
-0.01901140995323658 0.0037816199474036694 -0.05001828819513321
-0.01790834777057171 0.007417899090796709 -0.05001828819513321
-0.01611708290874958 0.010769116692245007 -0.05001828819513321
-0.013706445693969727 0.013706478290259838 -0.05001828819513321
-0.010769075714051723 0.01611710526049137 -0.05001828819513321
-0.0074178557842969894 0.017908364534378052 -0.05001828819513321
-0.0037815740797668695 0.01901140995323658 -0.05001828819513321
3.19041082441629e-09 0.01313836220651865 -0.05001828819513321
0.002563171787187457 0.012885911390185356 -0.05001828819513321
0.005027838051319122 0.012138264253735542 -0.05001828819513321
0.007299287710338831 0.010924148373305798 -0.05001828819513321
0.00929022952914238 0.009290225803852081 -0.05001828819513321
0.01092415489256382 0.007299279794096947 -0.05001828819513321
0.01213826984167099 0.005027830600738525 -0.05001828819513321
0.012885917909443378 0.002563164569437504 -0.05001828819513321
0.013138367794454098 -3.0248743509986298e-09 -0.05001828819513321
0.012885917909443378 -0.0025631701573729515 -0.05001828819513321
0.01213826984167099 -0.005027837119996548 -0.05001828819513321
0.01092415489256382 -0.0072992886416614056 -0.05001828819513321
0.00929022952914238 -0.00929022952914238 -0.05001828819513321
0.007299287710338831 -0.01092415489256382 -0.05001828819513321
0.005027836188673973 -0.01213827170431614 -0.05001828819513321
0.002563168527558446 -0.012885918840765953 -0.05001828819513321
-1.0906031633339808e-09 -0.013138368725776672 -0.05001828819513321
-0.002563169924542308 -0.012885915115475655 -0.05001828819513321
-0.005027838051319122 -0.012138267047703266 -0.05001828819513321
-0.0072992886416614056 -0.010924150235950947 -0.05001828819513321
-0.00929022952914238 -0.009290223009884357 -0.05001828819513321
-0.01092415489256382 -0.007299280725419521 -0.05001828819513321
-0.012138267047703266 -0.005027829669415951 -0.05001828819513321
-0.012885915115475655 -0.0025631606113165617 -0.05001828819513321
-0.0131383640691638 8.669601925248571e-09 -0.05001828819513321
-0.012885911390185356 0.002563177840784192 -0.05001828819513321
-0.01213825773447752 0.005027844104915857 -0.05001828819513321
-0.010924139991402626 0.0072992946952581406 -0.05001828819513321
-0.009290210902690887 0.009290236979722977 -0.05001828819513321
-0.007299266755580902 0.010924160480499268 -0.05001828819513321
-0.005027813836932182 0.012138272635638714 -0.05001828819513321
-0.0025631452444940805 0.012885915115475655 -0.05001828819513321
4.149237398110017e-09 0.005867397412657738 -0.05001828819513321
0.001144676934927702 0.005754657089710236 -0.05001828819513321
0.0022453605197370052 0.005420767702162266 -0.05001828819513321
0.00325975613668561 0.00487856287509203 -0.05001828819513321
0.004148881882429123 0.004148876294493675 -0.05001828819513321
0.004878568928688765 0.003259750548750162 -0.05001828819513321
0.005420774687081575 0.002245354698970914 -0.05001828819513321
0.005754662211984396 0.0011446713469922543 -0.05001828819513321
0.005867403000593185 -1.1109788644603213e-09 -0.05001828819513321
0.005754662211984396 -0.0011446736752986908 -0.05001828819513321
0.005420774687081575 -0.0022453567944467068 -0.05001828819513321
0.004878568928688765 -0.003259753342717886 -0.05001828819513321
0.004148881882429123 -0.004148879088461399 -0.05001828819513321
0.003259755903854966 -0.004878565203398466 -0.05001828819513321
0.002245359355583787 -0.0054207718931138515 -0.05001828819513321
0.00114467553794384 -0.0057546598836779594 -0.05001828819513321
2.237428908813399e-09 -0.005867400206625462 -0.05001828819513321
-0.001144670881330967 -0.005754658952355385 -0.05001828819513321
-0.0022453549318015575 -0.005420769564807415 -0.05001828819513321
-0.0032597510144114494 -0.004878563806414604 -0.05001828819513321
-0.004148876294493675 -0.004148875828832388 -0.05001828819513321
-0.004878561943769455 -0.003259749850258231 -0.05001828819513321
-0.0054207672365009785 -0.0022453535348176956 -0.05001828819513321
-0.005754655692726374 -0.0011446693679317832 -0.05001828819513321
-0.0058673955500125885 4.111601281664434e-09 -0.05001828819513321
-0.0057546538300812244 0.0011446771677583456 -0.05001828819513321
-0.005420762579888105 0.002245361218228936 -0.05001828819513321
-0.00487855589017272 0.0032597570680081844 -0.05001828819513321
-0.004148868378251791 0.004148880485445261 -0.05001828819513321
-0.0032597414683550596 0.004878567531704903 -0.05001828819513321
-0.002245343988761306 0.005420771427452564 -0.05001828819513321
-0.0011446599382907152 0.00575465802103281 -0.05001828819513321
-2.8186724065903945e-08 0.020432740449905396 0.10520412772893906
0.003986201714724302 0.020040124654769897 0.10520412772893906
0.00781924370676279 0.018877387046813965 0.10520412772893906
0.011351795867085457 0.016989199444651604 0.10520412772893906
0.014448104426264763 0.014448125846683979 0.10520412772893906
0.016989177092909813 0.011351819150149822 0.10520412772893906
0.018877368420362473 0.007819266058504581 0.10520412772893906
0.020040104165673256 0.003986225929111242 0.10520412772893906
0.020432718098163605 -4.766157246649527e-09 0.10520412772893906
0.020040106028318405 -0.0039862338453531265 0.10520412772893906
0.018877370283007622 -0.007819275371730328 0.10520412772893906
0.016989177092909813 -0.011351829394698143 0.10520412772893906
0.014448104426264763 -0.01444813422858715 0.10520412772893906
0.011351795867085457 -0.01698921248316765 0.10520412772893906
0.007819240912795067 -0.018877403810620308 0.10520412772893906
0.0039861975237727165 -0.02004014514386654 0.10520412772893906
-3.4844564567038105e-08 -0.02043274976313114 0.10520412772893906
-0.0039862678386271 -0.02004013955593109 0.10520412772893906
-0.007819310761988163 -0.01887740008533001 0.10520412772893906
-0.01135186105966568 -0.01698920503258705 0.10520412772893906
-0.014448171481490135 -0.014448125846683979 0.10520412772893906
-0.016989242285490036 -0.011351817287504673 0.10520412772893906
-0.018877428025007248 -0.007819263264536858 0.10520412772893906
-0.02004016563296318 -0.00398621940985322 0.10520412772893906
-0.020432772114872932 1.3421052713624704e-08 0.10520412772893906
-0.020040160045027733 0.003986245486885309 0.10520412772893906
-0.018877413123846054 0.007819287478923798 0.10520412772893906
-0.016989221796393394 0.011351840570569038 0.10520412772893906
-0.014448140747845173 0.01444814633578062 0.10520412772893906
-0.011351830326020718 0.016989216208457947 0.10520412772893906
-0.007819273509085178 0.01887740194797516 0.10520412772893906
-0.003986228257417679 0.020040133967995644 0.10520412772893906
-2.5650888080264167e-09 0.02832069806754589 -0.035113636404275894
0.0055250925943255424 0.02777652069926262 -0.035113636404275894
0.010837860405445099 0.026164907962083817 -0.035113636404275894
0.015734141692519188 0.02354779653251171 -0.035113636404275894
0.020025763660669327 0.02002575621008873 -0.035113636404275894
0.023547803983092308 0.01573413424193859 -0.035113636404275894
0.026164917275309563 0.010837855748832226 -0.035113636404275894
0.027776528149843216 0.005525088403373957 -0.035113636404275894
0.02832070179283619 -6.437346655729925e-09 -0.035113636404275894
0.027776528149843216 -0.005525100976228714 -0.035113636404275894
0.02616492100059986 -0.01083786878734827 -0.035113636404275894
0.023547803983092308 -0.015734147280454636 -0.035113636404275894
0.020025763660669327 -0.020025769248604774 -0.035113636404275894
0.015734141692519188 -0.023547813296318054 -0.035113636404275894
0.010837855748832226 -0.026164928451180458 -0.035113636404275894
0.0055250851437449455 -0.02777654305100441 -0.035113636404275894
-1.1793146015293132e-08 -0.028320714831352234 -0.035113636404275894
-0.005525109823793173 -0.02777653932571411 -0.035113636404275894
-0.01083788089454174 -0.02616492472589016 -0.035113636404275894
-0.015734156593680382 -0.023547805845737457 -0.035113636404275894
-0.02002577669918537 -0.02002575807273388 -0.035113636404275894
-0.023547818884253502 -0.01573413424193859 -0.035113636404275894
-0.026164930313825607 -0.010837851092219353 -0.035113636404275894
-0.02777653932571411 -0.005525079555809498 -0.035113636404275894
-0.028320709243416786 1.8770945686696905e-08 -0.035113636404275894
-0.027776526287198067 0.005525116343051195 -0.035113636404275894
-0.026164909824728966 0.010837885551154613 -0.035113636404275894
-0.023547789081931114 0.01573416218161583 -0.035113636404275894
-0.020025737583637238 0.02002578228712082 -0.035113636404275894
-0.015734108164906502 0.023547817021608353 -0.035113636404275894
-0.010837830603122711 0.02616492658853531 -0.035113636404275894
-0.0055250562727451324 0.027776530012488365 -0.035113636404275894
-1.6655319345915132e-09 0.020687883719801903 -0.035113636404275894
0.004036004655063152 0.020290367305278778 -0.035113636404275894
0.007916909642517567 0.01911311037838459 -0.035113636404275894
0.011493575759232044 0.017201343551278114 -0.035113636404275894
0.014628545381128788 0.014628542587161064 -0.035113636404275894
0.017201349139213562 0.011493571102619171 -0.035113636404275894
0.019113115966320038 0.007916906848549843 -0.035113636404275894
0.020290376618504524 0.004036001395434141 -0.035113636404275894
0.0206878874450922 -4.835758016241698e-09 -0.035113636404275894
0.020290376618504524 -0.004036011174321175 -0.035113636404275894
0.019113119691610336 -0.00791691429913044 -0.035113636404275894
0.017201349139213562 -0.011493580415844917 -0.035113636404275894
0.014628545381128788 -0.014628550969064236 -0.035113636404275894
0.011493575759232044 -0.01720135658979416 -0.035113636404275894
0.007916905917227268 -0.019113125279545784 -0.035113636404275894
0.004035999998450279 -0.02029038406908512 -0.035113636404275894
-8.406502161051321e-09 -0.020687898620963097 -0.035113636404275894
-0.004036017693579197 -0.02029038406908512 -0.035113636404275894
-0.00791692454367876 -0.019113121554255486 -0.035113636404275894
-0.01149358693510294 -0.017201349139213562 -0.035113636404275894
-0.014628557488322258 -0.014628542587161064 -0.035113636404275894
-0.017201362177729607 -0.011493569239974022 -0.035113636404275894
-0.019113125279545784 -0.00791690219193697 -0.035113636404275894
-0.020290382206439972 -0.0040359958074986935 -0.035113636404275894
-0.02068789303302765 1.3578558721860645e-08 -0.035113636404275894
-0.020290374755859375 0.004036021884530783 -0.035113636404275894
-0.01911311037838459 0.007916928268969059 -0.035113636404275894
-0.017201339825987816 0.011493591591715813 -0.035113636404275894
-0.014628530479967594 0.014628561213612556 -0.035113636404275894
-0.011493552476167679 0.017201360315084457 -0.035113636404275894
-0.00791688822209835 0.019113123416900635 -0.035113636404275894
-0.004035978578031063 0.020290378481149673 -0.035113636404275894
-2.298852219695391e-10 0.01016182079911232 -0.035113636404275894
0.001982472836971283 0.009966562502086163 -0.035113636404275894
0.0038887609262019396 0.00938829779624939 -0.035113636404275894
0.00564560666680336 0.008449246175587177 -0.035113636404275894
0.007185494061559439 0.00718549033626914 -0.035113636404275894
0.008449247106909752 0.0056456029415130615 -0.035113636404275894
0.009388298727571964 0.0038887574337422848 -0.035113636404275894
0.009966564364731312 0.0019824712071567774 -0.035113636404275894
0.01016182079911232 -2.366935980546714e-09 -0.035113636404275894
0.009966564364731312 -0.001982474699616432 -0.035113636404275894
0.009388300590217113 -0.0038887630216777325 -0.035113636404275894
0.008449247106909752 -0.005645609460771084 -0.035113636404275894
0.007185494061559439 -0.007185496389865875 -0.035113636404275894
0.00564560666680336 -0.008449248038232327 -0.035113636404275894
0.0038887588307261467 -0.009388301521539688 -0.035113636404275894
0.0019824705086648464 -0.00996656809002161 -0.035113636404275894
-3.5410268051094818e-09 -0.010161824524402618 -0.035113636404275894
-0.001982477493584156 -0.009966566227376461 -0.035113636404275894
-0.0038887669797986746 -0.009388299658894539 -0.035113636404275894
-0.0056456103920936584 -0.008449246175587177 -0.035113636404275894
-0.0071854982525110245 -0.007185491733253002 -0.035113636404275894
-0.008449251763522625 -0.005645603872835636 -0.035113636404275894
-0.009388303384184837 -0.0038887569680809975 -0.035113636404275894
-0.00996656809002161 -0.0019824672490358353 -0.035113636404275894
-0.010161823593080044 6.678116726277494e-09 -0.035113636404275894
-0.009966563433408737 0.0019824812188744545 -0.035113636404275894
-0.00938829593360424 0.00388876860961318 -0.035113636404275894
-0.00844924058765173 0.00564561365172267 -0.035113636404275894
-0.0071854847483336926 0.007185500115156174 -0.035113636404275894
-0.005645594093948603 0.008449251763522625 -0.035113636404275894
-0.0038887488190084696 0.009388304315507412 -0.035113636404275894
-0.0019824581686407328 0.009966567158699036 -0.035113636404275894
4.3514380987375034e-10 0.00459246477112174 -0.035113636404275894
0.0008959460537880659 0.004504221025854349 -0.035113636404275894
0.0017574606463313103 0.004242883995175362 -0.035113636404275894
0.002551437821239233 0.003818494500592351 -0.035113636404275894
0.00324736419133842 0.0032473623286932707 -0.035113636404275894
0.0038184961304068565 0.002551436424255371 -0.035113636404275894
0.0042428853921592236 0.0017574592493474483 -0.035113636404275894
0.004504223354160786 0.0008959445985965431 -0.035113636404275894
0.004592465702444315 -9.48589984339776e-10 -0.035113636404275894
0.004504223354160786 -0.0008959464030340314 -0.035113636404275894
0.004242886323481798 -0.0017574611119925976 -0.035113636404275894
0.0038184961304068565 -0.0025514380540698767 -0.035113636404275894
0.00324736419133842 -0.0032473646569997072 -0.035113636404275894
0.002551437821239233 -0.003818496596068144 -0.035113636404275894
0.0017574600642547011 -0.0042428867891430855 -0.035113636404275894
0.0008959449478425086 -0.004504225216805935 -0.035113636404275894
-1.061271515112594e-09 -0.004592467565089464 -0.035113636404275894
-0.0008959472179412842 -0.00450422428548336 -0.035113636404275894
-0.0017574626253917813 -0.004242886323481798 -0.035113636404275894
-0.0025514389853924513 -0.0038184954319149256 -0.035113636404275894
-0.003247365355491638 -0.003247362095862627 -0.035113636404275894
-0.003818497061729431 -0.0025514354929327965 -0.035113636404275894
-0.004242885857820511 -0.0017574585508555174 -0.035113636404275894
-0.004504223354160786 -0.0008959430269896984 -0.035113636404275894
-0.004592465236783028 3.1391695909377404e-09 -0.035113636404275894
-0.004504220560193062 0.0008959490805864334 -0.035113636404275894
-0.0042428825981915 0.0017574640223756433 -0.035113636404275894
-0.0038184919394552708 0.0025514408480376005 -0.035113636404275894
-0.003247358836233616 0.0032473672181367874 -0.035113636404275894
-0.0025514313019812107 0.0038184979930520058 -0.035113636404275894
-0.0017574543599039316 0.004242886323481798 -0.035113636404275894
-0.0008959384285844862 0.004504222888499498 -0.035113636404275894
-2.8324837586524154e-08 0.022024834528565407 0.10342590510845184
0.004296804312616587 0.02160162851214409 0.10342590510845184
0.008428513072431087 0.020348291844129562 0.10342590510845184
0.012236317619681358 0.018312977626919746 0.10342590510845184
0.015573885291814804 0.015573907643556595 0.10342590510845184
0.018312957137823105 0.012236339040100574 0.10342590510845184
0.02034827135503292 0.008428534492850304 0.10342590510845184
0.021601608023047447 0.004296827130019665 0.10342590510845184
0.022024812176823616 -5.1189577021659716e-09 0.10342590510845184
0.021601608023047447 -0.0042968373745679855 0.10342590510845184
0.02034827321767807 -0.00842854380607605 0.10342590510845184
0.018312957137823105 -0.012236349284648895 0.10342590510845184
0.015573885291814804 -0.015573916025459766 0.10342590510845184
0.012236314825713634 -0.01831299252808094 0.10342590510845184
0.008428508415818214 -0.020348310470581055 0.10342590510845184
0.004296800121665001 -0.021601645275950432 0.10342590510845184
-3.5501440009966245e-08 -0.0220248494297266 0.10342590510845184
-0.004296869970858097 -0.021601639688014984 0.10342590510845184
-0.008428581058979034 -0.02034830115735531 0.10342590510845184
-0.012236383743584156 -0.018312985077500343 0.10342590510845184
-0.015573952347040176 -0.015573907643556595 0.10342590510845184
-0.018313024193048477 -0.012236337177455425 0.10342590510845184
-0.020348334684967995 -0.00842852983623743 0.10342590510845184
-0.021601665765047073 -0.0042968206107616425 0.10342590510845184
-0.022024868056178093 1.4485379118411856e-08 0.10342590510845184
-0.021601662039756775 0.004296849016100168 0.10342590510845184
-0.0203483197838068 0.008428558707237244 0.10342590510845184
-0.01831299625337124 0.01223636232316494 0.10342590510845184
-0.015573921613395214 0.015573928132653236 0.10342590510845184
-0.012236347422003746 0.01831299625337124 0.10342590510845184
-0.008428540080785751 0.020348304882645607 0.10342590510845184
-0.004296828061342239 0.021601635962724686 0.10342590510845184
0.020137641578912735 0.004005626775324345 0.10398827493190765
0.020532162860035896 -4.7879229470026985e-09 0.10398827493190765
-0.017071928828954697 -0.011407067067921162 0.10398827493190765
-0.018969306722283363 -0.00785731989890337 0.10398827493190765
0.020137643441557884 -0.0040056356228888035 0.10398827493190765
-0.02013770118355751 -0.004005619790405035 0.10398827493190765
0.01896924339234829 -0.007857332937419415 0.10398828983306885
-0.020532220602035522 1.3487807315470945e-08 0.10398827493190765
0.017071867361664772 -0.011407078243792057 0.10398827493190765
-0.020137695595622063 0.004005646798759699 0.10398827493190765
0.01451842486858368 -0.014518455602228642 0.10398827493190765
-0.01896928809583187 0.007857345044612885 0.10398827493190765
0.01140704657882452 -0.017071900889277458 0.10398827493190765
-0.017071906477212906 0.011407091282308102 0.10398827493190765
0.007857297547161579 -0.018969280645251274 0.10398827493190765
-2.8198018142688852e-08 0.020532187074422836 0.10398827493190765
0.0040056039579212666 0.020137660205364227 0.10398827493190765
-0.014518463052809238 0.014518464915454388 0.10398827493190765
0.004005598835647106 -0.02013768069446087 0.10398827493190765
0.007857301272451878 0.01896926388144493 0.10398827493190765
-0.011407080106437206 0.017071902751922607 0.10398827493190765
-3.488824162900528e-08 -0.02053219825029373 0.10398827493190765
0.01140704657882452 0.017071884125471115 0.10398827493190765
-0.00785733014345169 0.018969278782606125 0.10398827493190765
-0.004005668219178915 -0.02013767510652542 0.10398827493190765
0.01451842486858368 0.01451844535768032 0.10398827493190765
-0.004005629103630781 0.020137671381235123 0.10398827493190765
-0.0078573664650321 -0.018969276919960976 0.10398827493190765
0.017071867361664772 0.011407068930566311 0.10398827493190765
-0.011407112702727318 -0.01707189343869686 0.10398827493190765
0.01896924339234829 0.007857323624193668 0.10398827493190765
-0.014518490061163902 -0.01451844722032547 0.10398827493190765
0.021090302616357803 0.021090295165777206 -0.035478342324495316
0.016570545732975006 0.024799564853310585 -0.035478342324495316
0.016570542007684708 -0.024799585342407227 -0.035478342324495316
0.021090302616357803 -0.021090315654873848 -0.035478342324495316
-0.02755582518875599 -0.011413977481424809 -0.035478342324495316
-0.024799589067697525 -0.01657053828239441 -0.035478342324495316
-0.005818760022521019 0.029253091663122177 -0.035478342324495316
-0.011413953267037868 0.02755582146346569 -0.035478342324495316
0.029253091663122177 -0.005818808451294899 -0.035478342324495316
0.029826194047927856 -7.063957419006783e-09 -0.035478342324495316
-0.011414006352424622 -0.027555815875530243 -0.035478342324495316
-0.0058188168331980705 -0.029253099113702774 -0.035478342324495316
-0.024799559265375137 0.016570569947361946 -0.035478342324495316
-0.0275557991117239 0.011414013803005219 -0.035478342324495316
0.02479957416653633 0.01657053455710411 -0.035478342324495316
0.011413983069360256 -0.02755582518875599 -0.035478342324495316
-0.029253102838993073 -0.005818786099553108 -0.035478342324495316
0.005818799138069153 0.02925308421254158 -0.035478342324495316
-2.368875984259944e-09 0.02982618659734726 -0.035478342324495316
0.027555810287594795 -0.011413994245231152 -0.035478342324495316
-0.01657056249678135 -0.02479957416653633 -0.035478342324495316
-0.021090278401970863 0.021090323105454445 -0.035478342324495316
0.027555808424949646 0.011413982138037682 -0.035478342324495316
0.0058187926188111305 -0.029253104701638222 -0.035478342324495316
-0.029826199635863304 1.948437500232103e-08 -0.035478342324495316
0.011413988657295704 0.0275558028370142 -0.035478342324495316
0.02479957602918148 -0.016570555046200752 -0.035478342324495316
-0.021090321242809296 -0.021090298891067505 -0.035478342324495316
-0.01657051406800747 0.024799587205052376 -0.035478342324495316
0.02925308793783188 0.005818793550133705 -0.035478342324495316
-1.2087484790868075e-08 -0.029826203361153603 -0.035478342324495316
-0.02925308793783188 0.0058188228867948055 -0.035478342324495316
0.01976408064365387 0.019764075055718422 -0.04171871021389961
0.015528538264334202 -0.023240109905600548 -0.04171871021389961
-0.02582302875816822 -0.010696232318878174 -0.04171871021389961
-0.005452858749777079 0.027413567528128624 -0.04171871021389961
0.027413567528128624 -0.005452902987599373 -0.04171871021389961
-0.010696258395910263 -0.025823021307587624 -0.04171871021389961
-0.023240085691213608 0.015528560616075993 -0.04171871021389961
0.0232401005923748 0.015528530813753605 -0.04171871021389961
0.010696236975491047 -0.02582303062081337 -0.04171871021389961
-0.02741357497870922 -0.005452882964164019 -0.04171871021389961
0.005452895537018776 0.027413560077548027 -0.04171871021389961
0.025823019444942474 -0.010696247220039368 -0.04171871021389961
-0.015528555028140545 -0.02324010245501995 -0.04171871021389961
-0.019764060154557228 0.019764095544815063 -0.04171871021389961
0.025823015719652176 0.010696236044168472 -0.04171871021389961
0.005452889483422041 -0.02741357870399952 -0.04171871021389961
-0.02795063704252243 1.8283873970403874e-08 -0.04171871021389961
0.010696242563426495 0.02582300640642643 -0.04171871021389961
0.02324010245501995 -0.015528544783592224 -0.04171871021389961
-0.019764095544815063 -0.01976407691836357 -0.04171871021389961
-0.015528512187302113 0.023240115493535995 -0.04171871021389961
0.027413563802838326 0.0054528904147446156 -0.04171871021389961
-1.133646954087908e-08 -0.02795064076781273 -0.04171871021389961
-0.027413565665483475 0.005452918354421854 -0.04171871021389961
0.015528538264334202 0.023240091279149055 -0.04171871021389961
0.01976408064365387 -0.019764088094234467 -0.04171871021389961
-0.023240115493535995 -0.015528530813753605 -0.04171871021389961
-0.010696209035813808 0.025823023170232773 -0.04171871021389961
0.027950631454586983 -6.595018309241141e-09 -0.04171871021389961
-0.005452911835163832 -0.02741357497870922 -0.04171871021389961
-0.02582300826907158 0.01069626584649086 -0.04171871021389961
-2.2289952106291366e-09 0.027950627729296684 -0.04171871021389961
0.02110110968351364 -0.004197276197373867 -0.04875298961997032
0.02151450328528881 -5.1108304255365056e-09 -0.04875298961997032
-0.02110111154615879 -0.004197259899228811 -0.04875298961997032
-0.019876815378665924 -0.008233235217630863 -0.04875298961997032
0.019876815378665924 -0.008233247324824333 -0.04875298961997032
-0.02151450142264366 1.403925509180226e-08 -0.04875298961997032
0.017888661473989487 -0.011952822096645832 -0.04875298961997032
-0.021101100370287895 0.004197286907583475 -0.04875298961997032
0.015213051810860634 -0.015213057398796082 -0.04875298961997032
-0.019876796752214432 0.008233261294662952 -0.04875298961997032
0.011952818371355534 -0.017888665199279785 -0.04875298961997032
-0.017888639122247696 0.011952833272516727 -0.04875298961997032
0.008233243599534035 -0.019876819103956223 -0.04875298961997032
0.004197274334728718 0.021101100370287895 -0.04875298961997032
2.229293638578156e-09 0.021514495834708214 -0.04875298961997032
-0.015213031321763992 0.015213065780699253 -0.04875298961997032
0.00419726874679327 -0.02110111527144909 -0.04875298961997032
0.008233247324824333 0.01987680420279503 -0.04875298961997032
-0.011952790431678295 0.017888665199279785 -0.04875298961997032
-4.781041784696072e-09 -0.021514514461159706 -0.04875298961997032
0.011952819302678108 0.017888648435473442 -0.04875298961997032
-0.008233213797211647 0.019876817241311073 -0.04875298961997032
-0.004197278060019016 -0.02110111340880394 -0.04875298961997032
0.015213051810860634 0.01521304715424776 -0.04875298961997032
-0.004197236616164446 0.021101104095578194 -0.04875298961997032
-0.008233251050114632 -0.019876811653375626 -0.04875298961997032
0.017888661473989487 0.011952810920774937 -0.04875298961997032
-0.011952826753258705 -0.01788865588605404 -0.04875298961997032
0.019876813516020775 0.008233237080276012 -0.04875298961997032
-0.01521305926144123 -0.01521304715424776 -0.04875298961997032
0.02110110968351364 0.004197265487164259 -0.04875298961997032
-0.017888663336634636 -0.011952809989452362 -0.04875298961997032
0.004538703244179487 0.02281760238111019 0.08374227583408356
0.004786171019077301 0.02406170591711998 0.06405865401029587
0.005076375789940357 0.02552066184580326 0.04437502846121788
0.005320709198713303 0.026749009266495705 0.02469140663743019
0.005590395536273718 0.028104817494750023 0.00500778341665864
0.0058027515187859535 0.02917240560054779 -0.014675839804112911
0.008902987465262413 0.021493712440133095 0.08374227583408356
0.009388414211571217 0.022665634751319885 0.06405865401029587
0.009957670234143734 0.024039939045906067 0.04437502846121788
0.010436947457492352 0.025197016075253487 0.02469140663743019
0.010965955443680286 0.026474157348275185 0.00500778341665864
0.011382508091628551 0.027479805052280426 -0.014675839804112911
0.012925137765705585 0.019343826919794083 0.08374227583408356
0.01362986583262682 0.02039853110909462 0.06405865401029587
0.01445629820227623 0.021635370329022408 0.04437502846121788
0.015152102336287498 0.02267671376466751 0.02469140663743019
0.01592010259628296 0.023826109245419502 0.00500778341665864
0.016524845734238625 0.024731172248721123 -0.014675839804112911
0.016450578346848488 0.01645057462155819 0.08374227583408356
0.017347531393170357 0.01734752394258976 0.06405865401029587
0.018399378284811974 0.018399370834231377 0.04437502846121788
0.019284971058368683 0.019284961745142937 0.02469140663743019
0.020262448117136955 0.020262442529201508 0.00500778341665864
0.02103213593363762 0.02103213034570217 -0.014675839804112911
0.01934383623301983 0.012925132177770138 0.08374227583408356
0.020398538559675217 0.013629860244691372 0.06405865401029587
0.021635379642248154 0.014456290751695633 0.04437502846121788
0.022676724940538406 0.015152094885706902 0.02469140663743019
0.02382611855864525 0.015920093283057213 0.00500778341665864
0.02473117783665657 0.01652483642101288 -0.014675839804112911
0.02149371989071369 0.008902983739972115 0.08374227583408356
0.022665642201900482 0.009388409554958344 0.06405865401029587
0.024039944633841515 0.009957664646208286 0.04437502846121788
0.025197023525834084 0.010436942800879478 0.02469140663743019
0.02647416479885578 0.010965950787067413 0.00500778341665864
0.027479814365506172 0.011382503435015678 -0.014675839804112911
0.02281760796904564 0.004538698587566614 0.08374227583408356
0.024061715230345726 0.004786166362464428 0.06405865401029587
0.025520669296383858 0.005076369736343622 0.04437502846121788
0.0267490167170763 0.005320703610777855 0.02469140663743019
0.02810482494533062 0.00559038994833827 0.00500778341665864
0.029172414913773537 0.005802745930850506 -0.014675839804112911
0.023264633491635323 -5.4040074637384805e-09 0.08374227583408356
0.024533113464713097 -5.718803208765166e-09 0.06405865401029587
0.026020651683211327 -6.052111700682872e-09 0.04437502846121788
0.027273064479231834 -6.350779457875433e-09 0.02469140663743019
0.028655430302023888 -6.695760390584837e-09 0.00500778341665864
0.02974393591284752 -6.974954391836263e-09 -0.014675839804112911
0.02281760983169079 -0.004538709297776222 0.08374227583408356
0.024061715230345726 -0.004786177538335323 0.06405865401029587
0.025520671159029007 -0.005076381843537092 0.04437502846121788
0.0267490204423666 -0.005320715717971325 0.02469140663743019
0.02810482680797577 -0.00559040205553174 0.00500778341665864
0.029172414913773537 -0.005802759900689125 -0.014675839804112911
0.02149372175335884 -0.008902993984520435 0.08374227583408356
0.022665642201900482 -0.009388420730829239 0.06405865401029587
0.024039946496486664 -0.009957674890756607 0.04437502846121788
0.02519702911376953 -0.0104369530454278 0.02469140663743019
0.02647416479885578 -0.010965962894260883 0.00500778341665864
0.027479814365506172 -0.011382516473531723 -0.014675839804112911
0.01934383623301983 -0.012925142422318459 0.08374227583408356
0.020398538559675217 -0.013629873283207417 0.06405865401029587
0.021635379642248154 -0.014456303790211678 0.04437502846121788
0.022676724940538406 -0.01515210885554552 0.02469140663743019
0.02382611855864525 -0.015920111909508705 0.00500778341665864
0.02473117783665657 -0.01652485504746437 -0.014675839804112911
0.016450578346848488 -0.016450585797429085 0.08374227583408356
0.017347531393170357 -0.017347536981105804 0.06405865401029587
0.018399378284811974 -0.01839938387274742 0.04437502846121788
0.019284971058368683 -0.01928497478365898 0.02469140663743019
0.020262448117136955 -0.020262455567717552 0.00500778341665864
0.02103213593363762 -0.021032150834798813 -0.014675839804112911
0.012925135903060436 -0.019343845546245575 0.08374227583408356
0.01362986396998167 -0.020398549735546112 0.06405865401029587
0.01445629633963108 -0.02163539081811905 0.04437502846121788
0.01515210047364235 -0.02267673797905445 0.02469140663743019
0.01592010073363781 -0.023826133459806442 0.00500778341665864
0.016524843871593475 -0.024731194600462914 -0.014675839804112911
0.00890298467129469 -0.021493729203939438 0.08374227583408356
0.009388410486280918 -0.022665653377771378 0.06405865401029587
0.009957666508853436 -0.02403995953500271 0.04437502846121788
0.010436943732202053 -0.025197038426995277 0.02469140663743019
0.010965951718389988 -0.026474179700016975 0.00500778341665864
0.011382504366338253 -0.027479829266667366 -0.014675839804112911
0.004538698121905327 -0.022817619144916534 0.08374227583408356
0.004786165431141853 -0.02406172640621662 0.06405865401029587
0.005076369270682335 -0.025520682334899902 0.04437502846121788
0.00532070267945528 -0.026749035343527794 0.02469140663743019
0.005590389017015696 -0.028104837983846664 0.00500778341665864
0.0058027454651892185 -0.02917242981493473 -0.014675839804112911
-9.45185707479368e-09 -0.023264644667506218 0.08374227583408356
-9.972392689405751e-09 -0.024533122777938843 0.06405865401029587
-1.0550719409252451e-08 -0.026020660996437073 0.04437502846121788
-1.107342750827911e-08 -0.02727307565510273 0.02469140663743019
-1.1633987995196549e-08 -0.028655443340539932 0.00500778341665864
-1.2052982611976404e-08 -0.029743947088718414 -0.014675839804112911
-0.004538716282695532 -0.022817615419626236 0.08374227583408356
-0.00478618498891592 -0.024061722680926323 0.06405865401029587
-0.0050763897597789764 -0.025520678609609604 0.04437502846121788
-0.005320723634213209 -0.026749029755592346 0.02469140663743019
-0.005590411368757486 -0.028104834258556366 0.00500778341665864
-0.005802769213914871 -0.029172426089644432 -0.014675839804112911
-0.008903003297746181 -0.02149372547864914 0.08374227583408356
-0.00938842911273241 -0.02266564592719078 0.06405865401029587
-0.009957685135304928 -0.024039950221776962 0.04437502846121788
-0.01043696515262127 -0.02519703097641468 0.02469140663743019
-0.010965975001454353 -0.02647416852414608 0.00500778341665864
-0.011382527649402618 -0.02747981809079647 -0.014675839804112911
-0.01292515080422163 -0.01934383623301983 0.08374227583408356
-0.013629881665110588 -0.020398538559675217 0.06405865401029587
-0.014456313103437424 -0.021635379642248154 0.04437502846121788
-0.015152117237448692 -0.022676724940538406 0.02469140663743019
-0.015920119360089302 -0.02382611855864525 0.00500778341665864
-0.01652486063539982 -0.02473117783665657 -0.014675839804112911
-0.01645059324800968 -0.01645057648420334 0.08374227583408356
-0.017347542569041252 -0.01734752766788006 0.06405865401029587
-0.01839938946068287 -0.018399374559521675 0.04437502846121788
-0.019284982234239578 -0.019284965470433235 0.02469140850007534
-0.02026246301829815 -0.020262446254491806 0.005007787141948938
-0.02103215456008911 -0.02103213220834732 -0.01467583142220974
-0.019343851134181023 -0.012925129383802414 0.08374227583408356
-0.02039855346083641 -0.013629860244691372 0.06405865401029587
-0.021635396406054497 -0.014456290751695633 0.04437502846121788
-0.0226767435669899 -0.015152094885706902 0.02469140663743019
-0.02382613904774189 -0.01592009700834751 0.00500778341665864
-0.024731196463108063 -0.016524838283658028 -0.014675839804112911
-0.02149372734129429 -0.008902979083359241 0.08374227583408356
-0.02266565151512623 -0.009388403967022896 0.06405865401029587
-0.02403995767235756 -0.009957659058272839 0.04437502846121788
-0.025197036564350128 -0.010436938144266605 0.02469140663743019
-0.026474177837371826 -0.01096594613045454 0.00500778341665864
-0.027479827404022217 -0.011382498778402805 -0.014675839804112911
-0.022817613556981087 -0.0045386916026473045 0.08374227583408356
-0.024061720818281174 -0.004786158911883831 0.06405865401029587
-0.025520676746964455 -0.005076362751424313 0.04437502846121788
-0.026749027892947197 -0.005320696160197258 0.02469140663743019
-0.028104834258556366 -0.005590381566435099 0.00500778341665864
-0.029172426089644432 -0.005802738014608622 -0.014675839804112911
-0.02326463721692562 1.530387017112389e-08 0.08374227583408356
-0.024533117190003395 1.6118150369948125e-08 0.06405865401029587
-0.026020655408501625 1.7108904515339418e-08 0.04437502846121788
-0.02727307192981243 1.7925010808994557e-08 0.02469140663743019
-0.028655435889959335 1.881047317908724e-08 0.00500778341665864
-0.029743939638137817 1.950016148555278e-08 -0.014675839804112911
-0.02281760610640049 0.0045387218706309795 0.08374227583408356
-0.024061711505055428 0.004786190576851368 0.06405865401029587
-0.025520669296383858 0.0050763958133757114 0.04437502846121788
-0.0267490167170763 0.005320730619132519 0.02469140663743019
-0.02810482308268547 0.005590418353676796 0.00500778341665864
-0.029172411188483238 0.0058027757331728935 -0.014675839804112911
-0.021493712440133095 0.008903007954359055 0.08374227583408356
-0.022665634751319885 0.009388434700667858 0.06405865401029587
-0.024039939045906067 0.009957692585885525 0.04437502846121788
-0.025197016075253487 0.010436970740556717 0.02469140663743019
-0.026474157348275185 0.010965981520712376 0.00500778341665864
-0.027479805052280426 0.011382535099983215 -0.014675839804112911
-0.019343821331858635 0.012925156392157078 0.08374227583408356
-0.020398523658514023 0.013629886321723461 0.06405865401029587
-0.02163536287844181 0.014456317760050297 0.04437502846121788
-0.022676704451441765 0.01515212282538414 0.02469140663743019
-0.023826103657484055 0.0159201268106699 0.00500778341665864
-0.024731162935495377 0.016524866223335266 -0.014675839804112911
-0.016450559720396996 0.01645059511065483 0.08374227583408356
-0.017347509041428566 0.0173475444316864 0.06405865401029587
-0.018399354070425034 0.018399391323328018 0.04437502846121788
-0.019284943118691444 0.019284985959529877 0.02469140663743019
-0.020262423902750015 0.0202624648809433 0.00500778341665864
-0.021032115444540977 0.02103215642273426 -0.014675839804112911
-0.012925113551318645 0.019343849271535873 0.08374227583408356
-0.013629840686917305 0.02039855346083641 0.06405865401029587
-0.014456273056566715 0.021635396406054497 0.04437502846121788
-0.01515207625925541 0.0226767435669899 0.02469140663743019
-0.01592007651925087 0.02382613718509674 0.00500778341665864
-0.016524814069271088 0.024731194600462914 -0.014675839804112911
-0.008902961388230324 0.02149372734129429 0.08374227583408356
-0.009388387203216553 0.02266564965248108 0.06405865401029587
-0.009957641363143921 0.02403995394706726 0.04437502846121788
-0.010436915792524815 0.02519703470170498 0.02469140663743019
-0.01096592377871275 0.026474175974726677 0.00500778341665864
-0.011382476426661015 0.027479825541377068 -0.014675839804112911
-0.004538672510534525 0.02281760983169079 0.08374227583408356
-0.0047861384227871895 0.024061715230345726 0.06405865401029587
-0.005076340399682522 0.025520671159029007 0.04437502846121788
-0.005320672877132893 0.02674902230501175 0.02469140663743019
-0.005590357352048159 0.02810482680797577 0.00500778341665864
-0.00580271240323782 0.029172414913773537 -0.014675839804112911
-2.361177253717983e-09 0.029743928462266922 -0.01467583142220974
-2.296861589812238e-09 0.02865542657673359 0.005007790867239237
-2.186734793241385e-09 0.027273057028651237 0.024691414088010788
-2.0721133697776395e-09 0.02602064609527588 0.04437503591179848
-1.9784895943786296e-09 0.02453310787677765 0.06405865401029587
-1.8712775773366275e-09 0.023264631628990173 0.08374227583408356
0.016222447156906128 0.02427859976887703 -0.03929893672466278
0.020647259429097176 -0.02064727060496807 -0.03929893672466278
-0.02427862398326397 -0.01622243970632553 -0.03929893672466278
-0.01117418147623539 0.02697695605456829 -0.03929893672466278
0.029199635609984398 -6.909053773540563e-09 -0.03929893672466278
-0.005696581676602364 -0.028638580814003944 -0.03929893672466278
-0.02697693556547165 0.011174241080880165 -0.03929893672466278
-2.3132034066009055e-09 0.0291996281594038 -0.03929893672466278
0.020647259429097176 0.02064725197851658 -0.03929893672466278
0.01622244343161583 -0.02427862025797367 -0.03929893672466278
-0.02697695977985859 -0.01117420382797718 -0.03929893672466278
-0.005696525331586599 0.028638571500778198 -0.03929893672466278
0.028638571500778198 -0.005696573294699192 -0.03929893672466278
-0.011174233630299568 -0.026976952329277992 -0.03929893672466278
-0.02427859418094158 0.016222471371293068 -0.03929893672466278
0.024278610944747925 0.016222435981035233 -0.03929893672466278
0.011174210347235203 -0.02697696164250374 -0.03929893672466278
-0.028638582676649094 -0.005696550942957401 -0.03929893672466278
0.005696563515812159 0.02863856591284275 -0.03929893672466278
0.026976948603987694 -0.011174221523106098 -0.03929893672466278
-0.01622246392071247 -0.024278610944747925 -0.03929893672466278
-0.020647237077355385 0.020647278055548668 -0.03929893672466278
0.026976946741342545 0.011174209415912628 -0.03929893672466278
0.005696557462215424 -0.028638586401939392 -0.03929893672466278
-0.029199639335274696 1.9081580759916505e-08 -0.03929893672466278
0.01117421593517065 0.0269769374281168 -0.03929893672466278
0.024278612807393074 -0.016222458332777023 -0.03929893672466278
-0.02064727619290352 -0.020647255703806877 -0.03929893672466278
-0.01622241549193859 0.02427862212061882 -0.03929893672466278
0.02863856963813305 0.005696558393537998 -0.03929893672466278
-1.1827653523255321e-08 -0.029199644923210144 -0.03929893672466278
-0.02863856963813305 0.005696587730199099 -0.03929893672466278
0.025874489918351173 -6.117617967760225e-09 -0.045113660395145416
-0.02390492521226406 -0.009901728481054306 -0.045113660395145416
-2.100130291893265e-09 0.025874486193060875 -0.045113660395145416
0.025377321988344193 -0.005047868471592665 -0.045113660395145416
-0.02537732757627964 -0.005047848913818598 -0.045113660395145416
0.023904915899038315 -0.00990174151957035 -0.045113660395145416
-0.02587449550628662 1.691329742925518e-08 -0.045113660395145416
0.021513856947422028 -0.014375102706253529 -0.045113660395145416
-0.025377318263053894 0.005047881510108709 -0.045113660395145416
0.018296029418706894 -0.01829603686928749 -0.045113660395145416
-0.02390490472316742 0.009901760146021843 -0.045113660395145416
0.014375095255672932 -0.021513864398002625 -0.045113660395145416
-0.021513838320970535 0.014375117607414722 -0.045113660395145416
0.009901734068989754 -0.02390492521226406 -0.045113660395145416
0.005047861021012068 0.025377312675118446 -0.045113660395145416
-0.018296007066965103 0.018296044319868088 -0.045113660395145416
0.005047854967415333 -0.02537733130156994 -0.045113660395145416
0.009901737794280052 0.02390490658581257 -0.045113660395145416
-0.014375071041285992 0.021513864398002625 -0.045113660395145416
-1.0531110206102312e-08 -0.02587450109422207 -0.045113660395145416
0.014375097118318081 0.021513843908905983 -0.045113660395145416
-0.009901706129312515 0.023904923349618912 -0.045113660395145416
-0.005047875922173262 -0.02537732757627964 -0.045113660395145416
0.018296029418706894 0.018296021968126297 -0.045113660395145416
-0.005047826562076807 0.025377318263053894 -0.045113660395145416
-0.00990175362676382 -0.023904915899038315 -0.045113660395145416
0.021513856947422028 0.014375090599060059 -0.045113660395145416
-0.014375112019479275 -0.021513856947422028 -0.045113660395145416
0.023904914036393166 0.009901732206344604 -0.045113660395145416
-0.01829604245722294 -0.018296023830771446 -0.045113660395145416
0.025377318263053894 0.005047855898737907 -0.045113660395145416
-0.021513864398002625 -0.01437508873641491 -0.045113660395145416
0.023370295763015747 -0.0046486458741128445 -0.04720982164144516
-0.023370301350951195 -0.0046486277133226395 -0.04720982164144516
0.02201433666050434 -0.009118638932704926 -0.04720982164144516
-0.02382814884185791 1.5574622480585276e-08 -0.04720982164144516
0.019812380895018578 -0.013238213956356049 -0.04720982164144516
-0.02337029203772545 0.00464865704998374 -0.04720982164144516
0.01684904284775257 -0.016849052160978317 -0.04720982164144516
-0.022014329209923744 0.009118655696511269 -0.04720982164144516
0.013238206505775452 -0.019812388345599174 -0.04720982164144516
-0.019812365993857384 0.013238227926194668 -0.04720982164144516
0.009118631482124329 -0.022014345973730087 -0.04720982164144516
0.004648639354854822 0.02337028831243515 -0.04720982164144516
-0.01684902422130108 0.016849059611558914 -0.04720982164144516
0.004648633301258087 -0.023370305076241493 -0.04720982164144516
0.009118635207414627 0.022014331072568893 -0.04720982164144516
-0.013238184154033661 0.019812388345599174 -0.04720982164144516
-9.694034019958053e-09 -0.023828156292438507 -0.04720982164144516
0.013238206505775452 0.01981237344443798 -0.04720982164144516
-0.009118607267737389 0.022014344111084938 -0.04720982164144516
-0.004648652393370867 -0.023370301350951195 -0.04720982164144516
0.01684904284775257 0.016849037259817123 -0.04720982164144516
-0.004648607224225998 0.02337029203772545 -0.04720982164144516
-0.009118649177253246 -0.02201433666050434 -0.04720982164144516
0.019812380895018578 0.013238201849162579 -0.04720982164144516
-0.013238221406936646 -0.019812380895018578 -0.04720982164144516
0.02201433666050434 0.009118630550801754 -0.04720982164144516
-0.016849055886268616 -0.016849039122462273 -0.04720982164144516
0.02337029203772545 0.0046486337669193745 -0.04720982164144516
-0.019812388345599174 -0.013238200917840004 -0.04720982164144516
0.023828143253922462 -5.634837041412766e-09 -0.04720982164144516
-0.022014345973730087 -0.009118626825511456 -0.04720982164144516
-1.9298387332611355e-09 0.023828139528632164 -0.04720982164144516
