-0.039508674293756485 -9.722262106492963e-09 0.10726630687713623
-0.03874952718615532 -0.007707767654210329 0.10726630687713623
-0.036501262336969376 -0.015119313262403011 0.10726630687713623
-0.03285025432705879 -0.021949851885437965 0.10726630687713623
-0.02793685719370842 -0.027936851605772972 0.10726630687713623
-0.02194982022047043 -0.03285028412938118 0.10726630687713623
-0.015119298361241817 -0.036501262336969376 0.10726630687713623
-0.007707743905484676 -0.03874952718615532 0.10726630687713623
1.9361880987389668e-08 -0.039508670568466187 0.10726630687713623
0.007707784418016672 -0.03874952718615532 0.10726630687713623
0.015119338408112526 -0.036501262336969376 0.10726630687713623
0.02194986119866371 -0.0328502431511879 0.10726630687713623
0.02793685905635357 -0.027936851605772972 0.10726630687713623
0.03285029157996178 -0.02194981463253498 0.10726630687713623
0.03650125861167908 -0.01511929277330637 0.10726630687713623
0.03874952346086502 -0.007707738317549229 0.10726630687713623
0.03950867801904678 2.544441457530411e-08 0.10726630687713623
0.03874952346086502 0.007707789074629545 0.10726630687713623
0.036501217633485794 0.015119342133402824 0.10726630687713623
0.03285025432705879 0.02194986492395401 0.10726630687713623
0.027936819940805435 0.027936868369579315 0.10726630687713623
0.021949784830212593 0.03285025805234909 0.10726630687713623
0.015119263902306557 0.036501262336969376 0.10726630687713623
0.0077077108435332775 0.03874953091144562 0.10726630687713623
-0.005270539317280054 0.0035217036493122578 -0.05308717116713524
0.0024258734192699194 -0.005856399890035391 -0.05308717116713524
0.0012367259478196502 0.006217106711119413 -0.05308717116713524
-0.004482217598706484 0.004482278600335121 -0.05308717116713524
0.001236737472936511 -0.006217117886990309 -0.05308717116713524
0.002425861544907093 0.005856387782841921 -0.05308717116713524
-0.003521634265780449 0.005270605441182852 -0.05308717116713524
7.624532827321673e-08 -0.006338919047266245 -0.05308717116713524
0.003521775361150503 0.005270605441182852 -0.05308717116713524
-0.002425724407657981 0.005856381729245186 -0.05308717116713524
-0.0012365849688649178 -0.006217117886990309 -0.05308717116713524
0.004482355900108814 0.004482285585254431 -0.05308717116713524
-0.0012365863658487797 0.006217100657522678 -0.05308717116713524
-0.0024257206823676825 -0.005856399890035391 -0.05308717116713524
0.005270685534924269 0.003521708305925131 -0.05308717116713524
-0.003521634265780449 -0.005270624533295631 -0.05308717116713524
0.0058564599603414536 0.0024257961194962263 -0.05308717116713524
-0.004482217598706484 -0.004482294898480177 -0.05308717116713524
0.006217187270522118 0.0012366591254249215 -0.05308717116713524
-0.005270539317280054 -0.0035217194817960262 -0.05308717116713524
0.006338987499475479 -1.859227438671951e-09 -0.05308717116713524
-0.0058563207276165485 -0.0024258026387542486 -0.05308717116713524
0.006217187270522118 -0.0012366631999611855 -0.05308717116713524
-0.0062170387245714664 -0.0012366676237434149 -0.05308717116713524
0.005856466479599476 -0.00242579891346395 -0.05308717116713524
-0.00633884035050869 -7.501505194795755e-09 -0.05308717116713524
0.005270692054182291 -0.0035217124968767166 -0.05308717116713524
-0.0062170387245714664 0.001236652140505612 -0.05308717116713524
0.004482362885028124 -0.004482294898480177 -0.05308717116713524
7.417986580549041e-08 0.006338902283459902 -0.05308717116713524
-0.0058563207276165485 0.0024257898330688477 -0.05308717116713524
0.003521786769852042 -0.005270616617053747 -0.05308717116713524
0.008348142728209496 -0.012493761256337166 -0.05308717116713524
-0.013882254250347614 0.005750237498432398 -0.05308717116713524
7.558861625511781e-08 0.01502610370516777 -0.05308717116713524
0.010625145398080349 -0.010625077411532402 -0.05308717116713524
-0.014737321995198727 0.00293143792077899 -0.05308717116713524
0.012493845075368881 -0.00834805890917778 -0.05308717116713524
-0.015026045963168144 -9.202807405017666e-09 -0.05308717116713524
0.013882401399314404 -0.005750242155045271 -0.05308717116713524
-0.014737321995198727 -0.0029314584098756313 -0.05308717116713524
0.014737471006810665 -0.0029314476996660233 -0.05308717116713524
-0.013882254250347614 -0.005750249605625868 -0.05308717116713524
0.015026195906102657 4.171994305579574e-09 -0.05308717116713524
-0.012493684887886047 -0.008348073810338974 -0.05308717116713524
0.014737471006810665 0.0029314556159079075 -0.05308717116713524
-0.010624999180436134 -0.010625077411532402 -0.05308717116713524
0.013882382772862911 0.005750251933932304 -0.05308717116713524
-0.008347981609404087 -0.012493778020143509 -0.05308717116713524
0.012493832036852837 0.008348065428435802 -0.05308717116713524
-0.00575016625225544 -0.013882332481443882 -0.05308717116713524
-0.0029313743580132723 0.014737374149262905 -0.05308717116713524
0.01062513142824173 0.010625068098306656 -0.05308717116713524
-0.002931371331214905 -0.014737400226294994 -0.05308717116713524
-0.005750173237174749 0.013882308267056942 -0.05308717116713524
0.008348115719854832 0.01249375008046627 -0.05308717116713524
8.048482413869351e-08 -0.015026124194264412 -0.05308717116713524
-0.008347981609404087 0.01249375008046627 -0.05308717116713524
0.005750299897044897 0.013882319442927837 -0.05308717116713524
0.0029315317515283823 -0.014737400226294994 -0.05308717116713524
-0.010624999180436134 0.010625051334500313 -0.05308717116713524
0.002931504277512431 0.014737390913069248 -0.05308717116713524
0.005750328302383423 -0.013882332481443882 -0.05308717116713524
-0.012493684887886047 0.008348053321242332 -0.05308717116713524
0.030238257721066475 -0.012525046244263649 -0.03810565546154976
0.03210075572133064 -0.006385209038853645 -0.03810565546154976
-0.03210059925913811 -0.006385233253240585 -0.03810565546154976
-0.03023810312151909 -0.012525063939392567 -0.03810565546154976
0.03272964060306549 1.5940273101477942e-08 -0.03810565546154976
-0.027213554829359055 -0.01818358525633812 -0.03810565546154976
0.03210075572133064 0.006385239772498608 -0.03810565546154976
-0.023143231868743896 -0.023143304511904716 -0.03810565546154976
0.03023822233080864 0.01252508070319891 -0.03810565546154976
-0.018183479085564613 -0.02721366472542286 -0.03810565546154976
0.02721370756626129 0.01818358525633812 -0.03810565546154976
-0.012524976395070553 -0.030238181352615356 -0.03810565546154976
7.855044259486021e-08 0.032729536294937134 -0.03810565546154976
-0.00638514244928956 0.03210064023733139 -0.03810565546154976
0.02314334735274315 0.023143302649259567 -0.03810565546154976
-0.006385135464370251 -0.03210067376494408 -0.03810565546154976
-0.012524991296231747 0.030238153412938118 -0.03810565546154976
0.018183600157499313 0.027213631197810173 -0.03810565546154976
8.921506378101185e-08 -0.03272956609725952 -0.03810565546154976
-0.018183479085564613 0.027213631197810173 -0.03810565546154976
0.012525091879069805 0.030238179489970207 -0.03810565546154976
0.0063853152096271515 -0.03210067376494408 -0.03810565546154976
-0.023143231868743896 0.02314326912164688 -0.03810565546154976
0.006385255139321089 0.03210067376494408 -0.03810565546154976
0.01252515334635973 -0.030238181352615356 -0.03810565546154976
-0.027213554829359055 0.01818355731666088 -0.03810565546154976
0.01818365789949894 -0.027213627472519875 -0.03810565546154976
-0.03023810312151909 0.012525050900876522 -0.03810565546154976
0.023143373429775238 -0.023143304511904716 -0.03810565546154976
-0.03210059925913811 0.006385202053934336 -0.03810565546154976
0.02721373736858368 -0.018183551728725433 -0.03810565546154976
-0.03272949531674385 -1.3192391179472907e-08 -0.03810565546154976
0.03740021586418152 0.00743939308449626 0.10726630687713623
0.03523019701242447 0.014592867344617844 0.10726630687713623
-0.026964057236909866 -0.02696404792368412 0.10726630687713623
-0.02118549682199955 -0.03170638531446457 0.10726630687713623
0.03170636296272278 0.021185539662837982 0.10726630687713623
-0.014592820778489113 -0.035230234265327454 0.10726630687713623
6.237967031808012e-09 0.03813290223479271 0.10726630687713623
-0.007439358159899712 0.03740016743540764 0.10726630687713623
0.02696401998400688 0.026964062824845314 0.10726630687713623
-0.007439349312335253 -0.03740020841360092 0.10726630687713623
-0.01459284033626318 0.035230208188295364 0.10726630687713623
0.021185463294386864 0.03170636668801308 0.10726630687713623
1.8663257606021944e-08 -0.0381329208612442 0.10726630687713623
-0.02118549682199955 0.03170636668801308 0.10726630687713623
0.014592789113521576 0.035230234265327454 0.10726630687713623
0.007439387962222099 -0.03740020841360092 0.10726630687713623
-0.026964057236909866 0.02696402557194233 0.10726630687713623
0.007439317647367716 0.03740021213889122 0.10726630687713623
0.014592859894037247 -0.035230234265327454 0.10726630687713623
-0.03170635923743248 0.021185506135225296 0.10726630687713623
0.021185534074902534 -0.03170635551214218 0.10726630687713623
-0.035230230540037155 0.014592830091714859 0.10726630687713623
0.026964055374264717 -0.02696404792368412 0.10726630687713623
-0.03740020841360092 0.007439348381012678 0.10726630687713623
0.031706396490335464 -0.021185489371418953 0.10726630687713623
-0.0381329208612442 -9.347647988988683e-09 0.10726630687713623
0.035230234265327454 -0.01459281612187624 0.10726630687713623
-0.03740020841360092 -0.0074393730610609055 0.10726630687713623
0.03740021586418152 -0.007439343724399805 0.10726630687713623
-0.035230230540037155 -0.014592835679650307 0.10726630687713623
0.0381329283118248 2.4594491776497307e-08 0.10726630687713623
-0.03170635923743248 -0.02118552476167679 0.10726630687713623
-0.021368304267525673 0.014277881942689419 -0.05308717116713524
0.009834874421358109 -0.0237432848662138 -0.05308717116713524
0.0050137718208134174 0.025205722078680992 -0.05308717116713524
-0.01817225106060505 0.018172292038798332 -0.05308717116713524
0.00501381978392601 -0.02520572394132614 -0.05308717116713524
0.00983482412993908 0.023743273690342903 -0.05308717116713524
-0.01427780743688345 0.021368369460105896 -0.05308717116713524
8.578473398301867e-08 -0.025699537247419357 -0.05308717116713524
0.014277932234108448 0.021368369460105896 -0.05308717116713524
-0.0098347133025527 0.02374325320124626 -0.05308717116713524
-0.005013647489249706 -0.02520572394132614 -0.05308717116713524
0.01817236840724945 0.01817232184112072 -0.05308717116713524
-0.005013652611523867 0.025205694139003754 -0.05308717116713524
-0.00983470119535923 -0.0237432848662138 -0.05308717116713524
0.021368451416492462 0.01427790429443121 -0.05308717116713524
-0.01427780743688345 -0.021368402987718582 -0.05308717116713524
0.02374332584440708 0.00983479991555214 -0.05308717116713524
-0.01817225106060505 -0.01817232370376587 -0.05308717116713524
0.02520580217242241 0.005013745278120041 -0.05308717116713524
-0.021368304267525673 -0.014277908951044083 -0.05308717116713524
0.025699613615870476 1.125827608916552e-08 -0.05308717116713524
-0.02374320663511753 -0.009834789671003819 -0.05308717116713524
0.02520580217242241 -0.005013721529394388 -0.05308717116713524
-0.025205649435520172 -0.005013740621507168 -0.05308717116713524
0.02374335192143917 -0.009834777563810349 -0.05308717116713524
-0.025699462741613388 -1.1616961614890897e-08 -0.05308717116713524
0.021368473768234253 -0.014277883805334568 -0.05308717116713524
-0.025205649435520172 0.005013715475797653 -0.05308717116713524
0.01817239448428154 -0.01817232370376587 -0.05308717116713524
7.741078889011987e-08 0.025699516758322716 -0.05308717116713524
-0.02374320663511753 0.00983477383852005 -0.05308717116713524
0.014277979731559753 -0.021368371322751045 -0.05308717116713524
0.02020532824099064 -0.030239271000027657 -0.05308717116713524
-0.03360002487897873 0.013917602598667145 -0.05308717116713524
7.935204848763533e-08 0.03636845201253891 -0.05308717116713524
0.02571648173034191 -0.02571640908718109 -0.05308717116713524
-0.035669587552547455 0.007095119450241327 -0.05308717116713524
0.03023938648402691 -0.020205222070217133 -0.05308717116713524
-0.03636840358376503 -1.3848520552528498e-08 -0.05308717116713524
0.033600177615880966 -0.013917598873376846 -0.05308717116713524
-0.035669587552547455 -0.007095149718225002 -0.05308717116713524
0.03566975146532059 -0.007095123175531626 -0.05308717116713524
-0.03360002487897873 -0.013917618431150913 -0.05308717116713524
0.03636855632066727 1.8523213185517307e-08 -0.05308717116713524
-0.030239203944802284 -0.02020525559782982 -0.05308717116713524
0.03566975146532059 0.00709516042843461 -0.05308717116713524
-0.025716332718729973 -0.02571640908718109 -0.05308717116713524
0.03360013663768768 0.013917636126279831 -0.05308717116713524
-0.020205151289701462 -0.030239315703511238 -0.05308717116713524
0.030239351093769073 0.020205259323120117 -0.05308717116713524
-0.013917524367570877 -0.033600110560655594 -0.05308717116713524
-0.007095059379935265 0.035669632256031036 -0.05308717116713524
0.025716446340084076 0.025716405361890793 -0.05308717116713524
-0.00709505146369338 -0.035669662058353424 -0.05308717116713524
-0.01391754299402237 0.03360006585717201 -0.05308717116713524
0.020205268636345863 0.030239271000027657 -0.05308717116713524
9.120236654780456e-08 -0.036368489265441895 -0.05308717116713524
-0.020205151289701462 0.030239271000027657 -0.05308717116713524
0.013917641714215279 0.0336000993847847 -0.05308717116713524
0.007095234002918005 -0.035669662058353424 -0.05308717116713524
-0.025716332718729973 0.025716371834278107 -0.05308717116713524
0.00709516741335392 0.03566967323422432 -0.05308717116713524
0.0139177106320858 -0.033600110560655594 -0.05308717116713524
-0.030239203944802284 0.02020522952079773 -0.05308717116713524
0.020169513300061226 -0.03018566407263279 -0.051741570234298706
-0.03354046866297722 0.013892930001020432 -0.051741570234298706
7.941879687223263e-08 0.03630399331450462 -0.051741570234298706
0.025670893490314484 -0.025670822709798813 -0.051741570234298706
-0.03560636192560196 0.007082541938871145 -0.051741570234298706
0.030185779556632042 -0.02016940526664257 -0.051741570234298706
-0.036303937435150146 -1.3166150836241286e-08 -0.051741570234298706
0.033540621399879456 -0.013892925344407558 -0.051741570234298706
-0.03560636192560196 -0.007082571275532246 -0.051741570234298706
0.03560652211308479 -0.007082547061145306 -0.051741570234298706
-0.03354046866297722 -0.0138929458335042 -0.051741570234298706
0.03630409017205238 1.9148167496041424e-08 -0.051741570234298706
-0.030185602605342865 -0.020169440656900406 -0.051741570234298706
0.03560652211308479 0.007082583382725716 -0.051741570234298706
-0.025670744478702545 -0.025670822709798813 -0.051741570234298706
0.03354058414697647 0.013892964459955692 -0.051741570234298706
-0.0201693344861269 -0.03018570877611637 -0.051741570234298706
0.030185747891664505 0.020169446244835854 -0.051741570234298706
-0.01389285083860159 -0.03354054316878319 -0.051741570234298706
-0.0070824818685650826 0.03560640290379524 -0.051741570234298706
0.025670858100056648 0.025670817121863365 -0.051741570234298706
-0.007082473952323198 -0.03560643643140793 -0.051741570234298706
-0.013892872259020805 0.0335405096411705 -0.051741570234298706
0.0201694518327713 0.03018566593527794 -0.051741570234298706
9.124815392169694e-08 -0.036304015666246414 -0.051741570234298706
-0.0201693344861269 0.03018566593527794 -0.051741570234298706
0.01389297191053629 0.03354053571820259 -0.051741570234298706
0.007082657422870398 -0.03560643643140793 -0.051741570234298706
-0.025670744478702545 0.02567078173160553 -0.051741570234298706
0.007082589901983738 0.03560644015669823 -0.051741570234298706
0.013893038034439087 -0.03354054316878319 -0.051741570234298706
-0.030185602605342865 0.020169412717223167 -0.051741570234298706
0.029029643163084984 -0.012024423107504845 -0.02236132323741913
0.030392462387681007 -0.012588919140398502 -0.004120480269193649
0.03316693380475044 -0.013738141395151615 0.014952540397644043
0.03541342914104462 -0.014668680727481842 0.0309742484241724
0.037285808473825455 -0.015444258227944374 0.050047267228364944
0.039046552032232285 -0.016173578798770905 0.06912028789520264
0.03811869025230408 -0.015789253637194633 0.08819330483675003
-0.0308175440877676 -0.006130015477538109 -0.02236132323741913
-0.032264307141304016 -0.006417796015739441 -0.004120480269193649
-0.035209666937589645 -0.007003664504736662 0.014952540397644043
-0.037594590336084366 -0.00747804855927825 0.0309742484241724
-0.03958239406347275 -0.007873433642089367 0.050047267228364944
-0.0414515845477581 -0.008245239034295082 0.06912028789520264
-0.04046657681465149 -0.008049309253692627 0.08819330483675003
7.714314165241376e-08 0.031421348452568054 -0.02236132323741913
7.851684813431348e-08 0.03289644047617912 -0.004120480269193649
7.905879328973242e-08 0.03589951619505882 0.014952540397644043
5.138798542247969e-08 0.038331132382154465 0.0309742484241724
7.1068027018839075e-09 0.04035783186554909 0.050047267228364944
7.418406333670191e-09 0.04226364195346832 0.06912028789520264
7.346576236244573e-09 0.04125933721661568 0.08819330483675003
0.040466584265232086 -0.00804927945137024 0.08819330483675003
0.0414515882730484 -0.00824520830065012 0.06912028044462204
0.039582401514053345 -0.00787340383976698 0.05004725977778435
0.037594690918922424 -0.007478021550923586 0.030974244698882103
0.03520982339978218 -0.007003639359027147 0.014952532947063446
0.03226445987820625 -0.006417771335691214 -0.004120485857129097
0.03081769496202469 -0.006129992660135031 -0.02236132323741913
-0.03811869025230408 -0.015789274126291275 0.08819330483675003
-0.03904653713107109 -0.016173601150512695 0.06912028044462204
-0.03728580102324486 -0.015444282442331314 0.05004725977778435
-0.03541333228349686 -0.014668702147901058 0.030974244698882103
-0.03316677734255791 -0.013738161884248257 0.014952532947063446
-0.030392305925488472 -0.01258893683552742 -0.004120485857129097
-0.029029492288827896 -0.012024439871311188 -0.02236132323741913
0.04125937074422836 2.7811541514211058e-08 0.08819330483675003
0.04226367920637131 2.8321126777086647e-08 0.06912028044462204
0.040357865393161774 2.703755086486126e-08 0.05004725977778435
0.03833121433854103 2.1678758344023663e-08 0.030974244698882103
0.03589962050318718 1.7974205235304908e-08 0.014952532947063446
0.03289655223488808 1.6036572958455508e-08 -0.004120485857129097
0.031421441584825516 1.5875158965172886e-08 -0.02236132323741913
-0.03430589288473129 -0.022922484204173088 0.08819330483675003
-0.03514094278216362 -0.02348044328391552 0.06912028044462204
-0.03355632349848747 -0.022421637549996376 0.05004725977778435
-0.031871140003204346 -0.021295662969350815 0.030974244698882103
-0.02984929271042347 -0.019944731146097183 0.014952532947063446
-0.027352329343557358 -0.018276315182447433 -0.004120485857129097
-0.0261258315294981 -0.017456788569688797 -0.02236132323741913
0.040466584265232086 0.008049335330724716 0.08819330483675003
0.0414515882730484 0.008245265111327171 0.06912028044462204
0.039582401514053345 0.007873458787798882 0.05004725977778435
0.037594690918922424 0.007478064391762018 0.030974244698882103
0.03520982339978218 0.007003673817962408 0.014952532947063446
0.03226445987820625 0.006417801603674889 -0.004120485857129097
0.03081769496202469 0.006130023393779993 -0.02236132323741913
-0.029174786061048508 -0.02917477674782276 0.08819330483675003
-0.029884926974773407 -0.02988492138683796 0.06912028044462204
-0.028537319973111153 -0.028537314385175705 0.05004725977778435
-0.02710418775677681 -0.027104226872324944 0.030974244698882103
-0.02538474090397358 -0.0253848135471344 0.014952532947063446
-0.023261256515979767 -0.02326132543385029 -0.004120485857129097
-0.022218195721507072 -0.022218268364667892 -0.02236132323741913
0.03811865299940109 0.01578930765390396 0.08819330483675003
0.039046503603458405 0.01617363654077053 0.06912028044462204
0.03728576749563217 0.015444311313331127 0.05004725977778435
0.035413388162851334 0.014668724499642849 0.030974244698882103
0.03316689282655716 0.013738179579377174 0.014952532947063446
0.030392425134778023 0.012588956393301487 -0.004120485857129097
0.02902960777282715 0.012024454772472382 -0.02236132323741913
-0.022922450676560402 -0.03430593013763428 0.08819330483675003
-0.023480411618947983 -0.0351409837603569 0.06912028044462204
-0.02242160402238369 -0.03355636075139046 0.05004725977778435
-0.021295582875609398 -0.03187122195959091 0.030974244698882103
-0.01994461938738823 -0.029849402606487274 0.014952532947063446
-0.018276209011673927 -0.02735244110226631 -0.004120485857129097
-0.01745668612420559 -0.026125933974981308 -0.02236132323741913
0.03430590033531189 0.022922499105334282 0.08819330483675003
0.03514094650745392 0.023480460047721863 0.06912028044462204
0.03355632349848747 0.02242164872586727 0.05004725977778435
0.03187123313546181 0.021295670419931412 0.030974244698882103
0.029849443584680557 0.019944729283452034 0.014952532947063446
0.027352487668395042 0.018276317045092583 -0.004120485857129097
0.026125984266400337 0.017456790432333946 -0.02236132323741913
-0.01578925922513008 -0.03811869025230408 0.08819330483675003
-0.01617358811199665 -0.03904654085636139 0.06912028044462204
-0.015444268472492695 -0.037285808473825455 0.05004725977778435
-0.01466863788664341 -0.03541338071227074 0.030974244698882103
-0.013738073408603668 -0.03316685929894447 0.014952532947063446
-0.012588849291205406 -0.03039238601922989 -0.004120485857129097
-0.01202434953302145 -0.029029566794633865 -0.02236132323741913
-0.008049296215176582 0.0404665432870388 0.08819330483675003
-0.008245225064456463 0.04145154729485512 0.06912028044462204
-0.007873418740928173 0.03958236053586006 0.05004725977778435
-0.007477986626327038 0.037594594061374664 0.030974244698882103
-0.007003574166446924 0.03520970046520233 0.014952532947063446
-0.006417704280465841 0.032264344394207 -0.004120485857129097
-0.006129927467554808 0.030817588791251183 -0.02236132323741913
0.029174743220210075 0.029174795374274254 0.08819330483675003
0.02988489344716072 0.0298849418759346 0.06912028044462204
0.028537284582853317 0.028537333011627197 0.05004725977778435
0.02710423432290554 0.02710423432290554 0.030974244698882103
0.025384852662682533 0.02538481540977955 0.014952532947063446
0.02326136827468872 0.02326132543385029 -0.004120485857129097
0.022218309342861176 0.022218268364667892 -0.02236132323741913
-0.008049286901950836 -0.04046658053994179 0.08819330483675003
-0.008245215751230717 -0.041451580822467804 0.06912028044462204
-0.007873409427702427 -0.03958239033818245 0.05004725977778435
-0.007477977313101292 -0.037594638764858246 0.030974244698882103
-0.007003565784543753 -0.035209741443395615 0.014952532947063446
-0.006417697295546532 -0.03226437792181969 -0.004120485857129097
-0.006129919551312923 -0.030817613005638123 -0.02236132323741913
-0.015789275988936424 0.03811866044998169 0.08819330483675003
-0.016173608601093292 0.0390465147793293 0.06912028044462204
-0.015444285236299038 0.03728577494621277 0.05004725977778435
-0.014668653719127178 0.03541334718465805 0.030974244698882103
-0.013738084584474564 0.033166829496622086 0.014952532947063446
-0.01258886232972145 0.030392354354262352 -0.004120485857129097
-0.012024367228150368 0.02902953512966633 -0.02236132323741913
0.022922417148947716 0.03430590033531189 0.08819330483675003
0.023480376228690147 0.03514094650745392 0.06912028044462204
0.022421564906835556 0.03355632722377777 0.05004725977778435
0.021295642480254173 0.031871188431978226 0.030974244698882103
0.01994473859667778 0.029849369078874588 0.014952532947063446
0.01827632635831833 0.027352407574653625 -0.004120485857129097
0.017456799745559692 0.026125911623239517 -0.02236132323741913
2.0790563937111983e-08 -0.041259363293647766 0.08819330483675003
2.1189658028220038e-08 -0.042263664305210114 0.06912028044462204
2.0257042265825476e-08 -0.04035785794258118 0.05004725977778435
6.387779194483301e-08 -0.03833116590976715 0.030974244698882103
9.075642992684152e-08 -0.03589953854680061 0.014952532947063446
8.923581162889604e-08 -0.03289647772908211 -0.004120485857129097
8.738143719710934e-08 -0.03142136335372925 -0.02236132323741913
-0.022922450676560402 0.03430590033531189 0.08819330483675003
-0.023480411618947983 0.03514094650745392 0.06912028044462204
-0.02242160402238369 0.03355632722377777 0.05004725977778435
-0.021295582875609398 0.031871188431978226 0.030974244698882103
-0.01994461938738823 0.029849369078874588 0.014952532947063446
-0.018276209011673927 0.027352407574653625 -0.004120485857129097
-0.01745668612420559 0.026125911623239517 -0.02236132323741913
0.015789221972227097 0.03811868652701378 0.08819330483675003
0.016173550859093666 0.039046552032232285 0.06912028044462204
0.015444234013557434 0.037285808473825455 0.05004725977778435
0.01466869655996561 0.03541338071227074 0.030974244698882103
0.013738184235990047 0.033166851848363876 0.014952532947063446
0.012588964775204659 0.03039238415658474 -0.004120485857129097
0.012024468742311 0.029029563069343567 -0.02236132323741913
0.008049329742789268 -0.04046658053994179 0.08819330483675003
0.008245259523391724 -0.041451580822467804 0.06912028044462204
0.007873454131186008 -0.03958239033818245 0.05004725977778435
0.0074781072326004505 -0.037594638764858246 0.030974244698882103
0.007003747392445803 -0.035209741443395615 0.014952532947063446
0.00641787750646472 -0.03226437792181969 -0.004120485857129097
0.006130096968263388 -0.030817613005638123 -0.02236132323741913
-0.029174786061048508 0.029174750670790672 0.08819330483675003
-0.029884926974773407 0.029884900897741318 0.06912028044462204
-0.028537319973111153 0.028537292033433914 0.05004725977778435
-0.02710418775677681 0.027104197070002556 0.030974244698882103
-0.02538474090397358 0.025384781882166862 0.014952532947063446
-0.023261256515979767 0.02326129749417305 -0.004120485857129097
-0.022218195721507072 0.022218240424990654 -0.02236132323741913
0.008049254305660725 0.04046657681465149 0.08819330483675003
0.008245183154940605 0.0414515882730484 0.06912028044462204
0.007873378694057465 0.039582397788763046 0.05004725977778435
0.00747803645208478 0.037594638764858246 0.030974244698882103
0.00700368219986558 0.03520974516868591 0.014952532947063446
0.006417817436158657 0.03226437792181969 -0.004120485857129097
0.006130038294941187 0.030817614868283272 -0.02236132323741913
0.015789300203323364 -0.03811869025230408 0.08819330483675003
0.016173629090189934 -0.03904654085636139 0.06912028044462204
0.015444308519363403 -0.037285808473825455 0.05004725977778435
0.014668768271803856 -0.03541338071227074 0.030974244698882103
0.013738252222537994 -0.03316685929894447 0.014952532947063446
0.012589024379849434 -0.03039238601922989 -0.004120485857129097
0.012024526484310627 -0.029029566794633865 -0.02236132323741913
-0.03430589288473129 0.022922463715076447 0.08819330483675003
-0.03514094278216362 0.023480426520109177 0.06912028044462204
-0.03355632349848747 0.022421615198254585 0.05004725977778435
-0.031871140003204346 0.021295635029673576 0.030974244698882103
-0.02984929271042347 0.019944701343774796 0.014952532947063446
-0.027352329343557358 0.018276285380125046 -0.004120485857129097
-0.0261258315294981 0.017456762492656708 -0.02236132323741913
0.022922489792108536 -0.034305889159440994 0.08819330483675003
0.023480448871850967 -0.03514093533158302 0.06912028044462204
0.022421643137931824 -0.033556316047906876 0.05004725977778435
0.021295713260769844 -0.03187118470668793 0.030974244698882103
0.019944803789258003 -0.029849369078874588 0.014952532947063446
0.018276387825608253 -0.027352411299943924 -0.004120485857129097
0.01745685748755932 -0.02612590231001377 -0.02236132323741913
-0.03811869025230408 0.015789266675710678 0.08819330483675003
-0.03904653713107109 0.0161735936999321 0.06912028044462204
-0.03728580102324486 0.015444273129105568 0.05004725977778435
-0.03541333228349686 0.014668687246739864 0.030974244698882103
-0.03316677734255791 0.013738146983087063 0.014952532947063446
-0.030392305925488472 0.0125889228656888 -0.004120485857129097
-0.029029492288827896 0.012024426832795143 -0.02236132323741913
0.02917478419840336 -0.02917477674782276 0.08819330483675003
0.029884932562708855 -0.02988492138683796 0.06912028044462204
0.028537319973111153 -0.028537314385175705 0.05004725977778435
0.027104273438453674 -0.027104226872324944 0.030974244698882103
0.02538488432765007 -0.0253848135471344 0.014952532947063446
0.02326139807701111 -0.02326132543385029 -0.004120485857129097
0.022218337282538414 -0.022218268364667892 -0.02236132323741913
-0.04046657681465149 0.00804928783327341 0.08819330483675003
-0.0414515845477581 0.008245215751230717 0.06912028044462204
-0.03958239406347275 0.00787341222167015 0.05004725977778435
-0.037594590336084366 0.007478019222617149 0.030974244698882103
-0.035209666937589645 0.00700363190844655 0.014952532947063446
-0.032264307141304016 0.006417764350771904 -0.004120485857129097
-0.0308175440877676 0.006129987072199583 -0.02236132323741913
0.034305937588214874 -0.022922445088624954 0.08819330483675003
0.0351409874856472 -0.023480402305722237 0.06912028044462204
0.033556368201971054 -0.022421598434448242 0.05004725977778435
0.03187127038836479 -0.02129562571644783 0.030974244698882103
0.02984948270022869 -0.0199446938931942 0.014952532947063446
0.02735252119600773 -0.018276283517479897 -0.004120485857129097
0.026126012206077576 -0.01745675876736641 -0.02236132323741913
-0.041259363293647766 -8.91348239662193e-09 0.08819330483675003
-0.04226367548108101 -9.297822956000346e-09 0.06912028044462204
-0.040357865393161774 -8.884963875743779e-09 0.05004725977778435
-0.03833112493157387 -1.243984115717467e-08 0.030974244698882103
-0.03589947149157524 -1.3979978064071474e-08 0.014952532947063446
-0.03289640694856644 -1.3244580543414486e-08 -0.004120485857129097
-0.031421300023794174 -1.2093011036995449e-08 -0.02236132323741913
0.039457328617572784 0.007848581299185753 0.07132130116224289
0.03716794773936272 0.015395515598356724 0.07132130116224289
-0.02844715118408203 -0.028447145596146584 0.07132130116224289
-0.02235075831413269 -0.03345032408833504 0.07132130116224289
0.03345029801130295 0.022350803017616272 0.07132130116224289
-0.01539546437561512 -0.0371679961681366 0.07132130116224289
6.97366031587876e-09 0.040230315178632736 0.07132130116224289
-0.007848542183637619 0.039457280188798904 0.07132130116224289
0.028447117656469345 0.028447164222598076 0.07132130116224289
-0.007848532870411873 -0.039457328617572784 0.07132130116224289
-0.01539548672735691 0.03716796636581421 0.07132130116224289
0.022350721061229706 0.033450301736593246 0.07132130116224289
2.0082364216023052e-08 -0.04023033380508423 0.07132130116224289
-0.02235075831413269 0.033450301736593246 0.07132130116224289
0.015395433641970158 0.0371679961681366 0.07132130116224289
0.00784857477992773 -0.039457328617572784 0.07132130116224289
-0.02844715118408203 0.028447123244404793 0.07132130116224289
0.007848501205444336 0.039457324892282486 0.07132130116224289
0.015395505353808403 -0.0371679961681366 0.07132130116224289
-0.03345029428601265 0.022350767627358437 0.07132130116224289
0.022350793704390526 -0.03345028683543205 0.07132130116224289
-0.0371679924428463 0.01539547648280859 0.07132130116224289
0.02844715118408203 -0.028447145596146584 0.07132130116224289
-0.03945732116699219 0.007848534733057022 0.07132130116224289
0.03345033526420593 -0.022350749000906944 0.07132130116224289
-0.04023033007979393 -8.743823443069232e-09 0.07132130116224289
0.0371679961681366 -0.015395460650324821 0.07132130116224289
-0.03945732116699219 -0.007848557084798813 0.07132130116224289
0.039457328617572784 -0.007848528213799 0.07132130116224289
-0.0371679924428463 -0.015395480208098888 0.07132130116224289
0.040230341255664825 2.7065251373414867e-08 0.07132130116224289
-0.03345029428601265 -0.02235078625380993 0.07132130116224289
0.03504360467195511 0.006970621179789305 0.03120795451104641
0.033010322600603104 0.01367333997040987 0.03120795451104641
-0.025264957919716835 -0.025265002623200417 0.03120795451104641
-0.019850516691803932 -0.029708512127399445 0.03120795451104641
0.029708532616496086 0.01985059678554535 0.03120795451104641
-0.01367325522005558 -0.033010318875312805 0.03120795451104641
5.100127964396961e-08 0.03573007509112358 0.03120795451104641
-0.006970546208322048 0.03504351153969765 0.03120795451104641
0.02526501752436161 0.025265010073781013 0.03120795451104641
-0.006970537826418877 -0.035043563693761826 0.03120795451104641
-0.013673273846507072 0.03301028907299042 0.03120795451104641
0.01985057443380356 0.029708486050367355 0.03120795451104641
6.264360763452714e-08 -0.03573010489344597 0.03120795451104641
-0.019850516691803932 0.029708486050367355 0.03120795451104641
0.013673316687345505 0.03301031515002251 0.03120795451104641
0.006970663089305162 -0.035043563693761826 0.03120795451104641
-0.025264957919716835 0.02526497282087803 0.03120795451104641
0.006970598828047514 0.03504355251789093 0.03120795451104641
0.013673381879925728 -0.033010318875312805 0.03120795451104641
-0.029708437621593475 0.01985056698322296 0.03120795451104641
0.019850637763738632 -0.029708480462431908 0.03120795451104641
-0.03301026672124863 0.013673308305442333 0.03120795451104641
0.02526504546403885 -0.025265002623200417 0.03120795451104641
-0.03504350781440735 0.006970579270273447 0.03120795451104641
0.02970856800675392 -0.019850557669997215 0.03120795451104641
-0.03573004901409149 -1.1748973349767766e-08 0.03120795451104641
0.03301035985350609 -0.013673300854861736 0.03120795451104641
-0.03504350781440735 -0.006970607675611973 0.03120795451104641
0.03504360467195511 -0.006970580667257309 0.03120795451104641
-0.03301026672124863 -0.013673319481313229 0.03120795451104641
0.03573014587163925 2.0054450544648716e-08 0.03120795451104641
-0.029708437621593475 -0.019850587472319603 0.03120795451104641
0.02918141707777977 0.0058045475743710995 -0.0041299909353256226
0.02748827077448368 0.01138601265847683 -0.0041299909353256226
-0.02103850618004799 -0.021038580685853958 -0.0041299909353256226
-0.016529813408851624 -0.024738766252994537 -0.0041299909353256226
0.024738814681768417 0.016529913991689682 -0.0041299909353256226
-0.011385906487703323 -0.027488233521580696 -0.0041299909353256226
7.808949931131792e-08 0.02975301444530487 -0.0041299909353256226
-0.005804451648145914 0.029181303456425667 -0.0041299909353256226
0.02103862725198269 0.021038582548499107 -0.0041299909353256226
-0.005804445128887892 -0.02918134815990925 -0.0041299909353256226
-0.011385923251509666 0.02748820371925831 -0.0041299909353256226
0.016529932618141174 0.0247387383133173 -0.0041299909353256226
8.778425808486645e-08 -0.02975304052233696 -0.0041299909353256226
-0.016529813408851624 0.0247387383133173 -0.0041299909353256226
0.011386030353605747 0.0274882260710001 -0.0041299909353256226
0.005804620683193207 -0.02918134815990925 -0.0041299909353256226
-0.02103850618004799 0.02103854902088642 -0.0041299909353256226
0.005804567132145166 0.029181336984038353 -0.0041299909353256226
0.011386084370315075 -0.027488233521580696 -0.0041299909353256226
-0.02473866380751133 0.016529887914657593 -0.0041299909353256226
0.016529984772205353 -0.024738740175962448 -0.0041299909353256226
-0.02748815156519413 0.011385984718799591 -0.0041299909353256226
0.02103865146636963 -0.021038580685853958 -0.0041299909353256226
-0.029181266203522682 0.005804512184113264 -0.0041299909353256226
0.024738842621445656 -0.016529886052012444 -0.0041299909353256226
-0.029752962291240692 -1.2259043558060512e-08 -0.0041299909353256226
0.027488306164741516 -0.011385982856154442 -0.0041299909353256226
-0.029181266203522682 -0.005804541055113077 -0.0041299909353256226
0.02918141707777977 -0.005804518237709999 -0.0041299909353256226
-0.02748815156519413 -0.011385996825993061 -0.0041299909353256226
0.02975311316549778 1.4224173838783827e-08 -0.0041299909353256226
-0.02473866380751133 -0.016529910266399384 -0.0041299909353256226
0.028346119448542595 0.005638396367430687 -0.02214006334543228
0.026701435446739197 0.011060095392167568 -0.02214006334543228
-0.02043628878891468 -0.02043635956943035 -0.02214006334543228
-0.016056660562753677 -0.02403063327074051 -0.02214006334543228
0.02403068169951439 0.016056757420301437 -0.02214006334543228
-0.011059993878006935 -0.026701396331191063 -0.02214006334543228
7.673115476336534e-08 0.02890135534107685 -0.02214006334543228
-0.005638302303850651 0.02834600768983364 -0.02214006334543228
0.02043640799820423 0.0204363651573658 -0.02214006334543228
-0.0056382957845926285 -0.028346046805381775 -0.02214006334543228
-0.01106000691652298 0.026701372116804123 -0.02214006334543228
0.01605677418410778 0.02403060905635357 -0.02214006334543228
8.61484039660354e-08 -0.028901373967528343 -0.02214006334543228
-0.016056660562753677 0.02403060905635357 -0.02214006334543228
0.011060111224651337 0.026701392605900764 -0.02214006334543228
0.005638469010591507 -0.028346046805381775 -0.02214006334543228
-0.02043628878891468 0.020436333492398262 -0.02214006334543228
0.005638415459543467 0.028346039354801178 -0.02214006334543228
0.011060167104005814 -0.026701396331191063 -0.02214006334543228
-0.02403053641319275 0.016056733205914497 -0.02214006334543228
0.016056828200817108 -0.024030610918998718 -0.02214006334543228
-0.026701318100094795 0.01106006745249033 -0.02214006334543228
0.02043643221259117 -0.02043635956943035 -0.02214006334543228
-0.028345966711640358 0.005638362839818001 -0.02214006334543228
0.024030709639191628 -0.01605672761797905 -0.02214006334543228
-0.028901299461722374 -1.1276554801042948e-08 -0.02214006334543228
0.026701467111706734 -0.01106006558984518 -0.02214006334543228
-0.028345966711640358 -0.005638389382511377 -0.02214006334543228
0.028346119448542595 -0.0056383670307695866 -0.02214006334543228
-0.026701318100094795 -0.011060080491006374 -0.02214006334543228
0.02890145033597946 1.444858099830526e-08 -0.02214006334543228
-0.02403053641319275 -0.01605675183236599 -0.02214006334543228
0.030714983120560646 0.006109593436121941 -0.044516220688819885
0.028932852670550346 0.011984379962086678 -0.044516220688819885
-0.022144146263599396 -0.022144215181469917 -0.044516220688819885
-0.01739850826561451 -0.02603885717689991 -0.044516220688819885
0.02603890746831894 0.017398608848452568 -0.044516220688819885
-0.011984274722635746 -0.02893281728029251 -0.044516220688819885
7.839184945623856e-08 0.031316619366407394 -0.044516220688819885
-0.006109495647251606 0.030714863911271095 -0.044516220688819885
0.022144261747598648 0.022144218906760216 -0.044516220688819885
-0.006109489127993584 -0.030714912340044975 -0.044516220688819885
-0.011984288692474365 0.028932787477970123 -0.044516220688819885
0.017398621886968613 0.02603883296251297 -0.044516220688819885
8.859615263645537e-08 -0.031316645443439484 -0.044516220688819885
-0.01739850826561451 0.02603883296251297 -0.044516220688819885
0.011984393931925297 0.028932809829711914 -0.044516220688819885
0.006109666544944048 -0.030714912340044975 -0.044516220688819885
-0.022144146263599396 0.022144189104437828 -0.044516220688819885
0.006109609734266996 0.03071490116417408 -0.044516220688819885
0.011984453536570072 -0.02893281728029251 -0.044516220688819885
-0.026038758456707 0.01739858277142048 -0.044516220688819885
0.01739867776632309 -0.02603883668780327 -0.044516220688819885
-0.028932735323905945 0.01198435015976429 -0.044516220688819885
0.022144289687275887 -0.022144215181469917 -0.044516220688819885
-0.03071483038365841 0.006109557114541531 -0.044516220688819885
0.026038935407996178 -0.01739857718348503 -0.044516220688819885
-0.031316567212343216 -1.2641145019642863e-08 -0.044516220688819885
0.028932888060808182 -0.01198434829711914 -0.044516220688819885
-0.03071483038365841 -0.006109585985541344 -0.044516220688819885
0.030714983120560646 -0.006109561771154404 -0.044516220688819885
-0.028932735323905945 -0.011984364129602909 -0.044516220688819885
0.03131672367453575 1.523385506629893e-08 -0.044516220688819885
-0.026038758456707 -0.01739860512316227 -0.044516220688819885
0.030714983120560646 0.006109593436121941 -0.04232519865036011
0.028932852670550346 0.011984379962086678 -0.04232519865036011
-0.022144146263599396 -0.022144215181469917 -0.04232519865036011
-0.01739850826561451 -0.02603885717689991 -0.04232519865036011
0.02603890746831894 0.017398608848452568 -0.04232519865036011
-0.011984274722635746 -0.02893281728029251 -0.04232519865036011
7.839184945623856e-08 0.031316619366407394 -0.04232519865036011
-0.006109495647251606 0.030714863911271095 -0.04232519865036011
0.022144261747598648 0.022144218906760216 -0.04232519865036011
-0.006109489127993584 -0.030714912340044975 -0.04232519865036011
-0.011984288692474365 0.028932787477970123 -0.04232519865036011
0.017398621886968613 0.02603883296251297 -0.04232519865036011
8.859615263645537e-08 -0.031316645443439484 -0.04232519865036011
-0.01739850826561451 0.02603883296251297 -0.04232519865036011
0.011984393931925297 0.028932809829711914 -0.04232519865036011
0.006109666544944048 -0.030714912340044975 -0.04232519865036011
-0.022144146263599396 0.022144189104437828 -0.04232519865036011
0.006109609734266996 0.03071490116417408 -0.04232519865036011
0.011984453536570072 -0.02893281728029251 -0.04232519865036011
-0.026038758456707 0.01739858277142048 -0.04232519865036011
0.01739867776632309 -0.02603883668780327 -0.04232519865036011
-0.028932735323905945 0.01198435015976429 -0.04232519865036011
0.022144289687275887 -0.022144215181469917 -0.04232519865036011
-0.03071483038365841 0.006109557114541531 -0.04232519865036011
0.026038935407996178 -0.01739857718348503 -0.04232519865036011
-0.031316567212343216 -1.2641145019642863e-08 -0.04232519865036011
0.028932888060808182 -0.01198434829711914 -0.04232519865036011
-0.03071483038365841 -0.006109585985541344 -0.04232519865036011
0.030714983120560646 -0.006109561771154404 -0.04232519865036011
-0.028932735323905945 -0.011984364129602909 -0.04232519865036011
0.03131672367453575 1.523385506629893e-08 -0.04232519865036011
-0.026038758456707 -0.01739860512316227 -0.04232519865036011
0.022362979128956795 0.004448271356523037 -0.04232519865036011
0.021065445616841316 0.008725583553314209 -0.04232519865036011
-0.016122685745358467 -0.016122760251164436 -0.04232519865036011
-0.012667485512793064 -0.01895836740732193 -0.04232519865036011
0.018958421424031258 0.012667575851082802 -0.04232519865036011
-0.008725487627089024 -0.021065404638648033 -0.04232519865036011
7.676004543100134e-08 0.022800996899604797 -0.04232519865036011
-0.0044481814838945866 0.02236287109553814 -0.04232519865036011
0.016122810542583466 0.016122758388519287 -0.04232519865036011
-0.0044481768272817135 -0.022362910211086273 -0.04232519865036011
-0.008725498802959919 0.021065376698970795 -0.04232519865036011
0.012667606584727764 0.01895834691822529 -0.04232519865036011
8.418953711952781e-08 -0.022801022976636887 -0.04232519865036011
-0.012667485512793064 0.01895834691822529 -0.04232519865036011
0.008725615218281746 0.021065395325422287 -0.04232519865036011
0.004448344931006432 -0.022362910211086273 -0.04232519865036011
-0.016122685745358467 0.016122734174132347 -0.04232519865036011
0.004448303021490574 0.022362899035215378 -0.04232519865036011
0.008725658990442753 -0.021065404638648033 -0.04232519865036011
-0.01895827427506447 0.012667556293308735 -0.04232519865036011
0.012667649425566196 -0.018958350643515587 -0.04232519865036011
-0.021065324544906616 0.008725561201572418 -0.04232519865036011
0.016122831031680107 -0.016122760251164436 -0.04232519865036011
-0.022362828254699707 0.004448243882507086 -0.04232519865036011
0.01895844377577305 -0.01266755536198616 -0.04232519865036011
-0.02280094474554062 -1.0556632901170815e-08 -0.04232519865036011
0.021065471693873405 -0.008725564926862717 -0.04232519865036011
-0.022362828254699707 -0.004448267165571451 -0.04232519865036011
0.022362979128956795 -0.004448250401765108 -0.04232519865036011
-0.021065324544906616 -0.008725575171411037 -0.04232519865036011
0.022801095619797707 9.73858860220389e-09 -0.04232519865036011
-0.01895827427506447 -0.012667574919760227 -0.04232519865036011
0.010784766636788845 0.0021452121436595917 -0.04232519865036011
0.0101590221747756 0.004207981284707785 -0.04232519865036011
-0.0077752587385475636 -0.007775334641337395 -0.04232519865036011
-0.006108960602432489 -0.009142829105257988 -0.04232519865036011
0.009142891503870487 0.006109039299190044 -0.04232519865036011
-0.004207901190966368 -0.010158965364098549 -0.04232519865036011
7.463580686817295e-08 0.010995964519679546 -0.04232519865036011
-0.0021451343782246113 0.010784674435853958 -0.04232519865036011
0.00777539424598217 0.007775329984724522 -0.04232519865036011
-0.0021451320499181747 -0.010784699581563473 -0.04232519865036011
-0.004207906313240528 0.010158948600292206 -0.04232519865036011
0.006109093781560659 0.009142814204096794 -0.04232519865036011
7.821881808922626e-08 -0.01099598128348589 -0.04232519865036011
-0.006108960602432489 0.009142814204096794 -0.04232519865036011
0.0042080357670784 0.010158955119550228 -0.04232519865036011
0.002145288046449423 -0.010784699581563473 -0.04232519865036011
-0.0077752587385475636 0.007775317877531052 -0.04232519865036011
0.0021452682558447123 0.010784688405692577 -0.04232519865036011
0.00420805811882019 -0.010158965364098549 -0.04232519865036011
-0.009142745286226273 0.006109029520303011 -0.04232519865036011
0.006109114736318588 -0.009142822585999966 -0.04232519865036011
-0.010158887133002281 0.004207970108836889 -0.04232519865036011
0.007775404024869204 -0.007775334641337395 -0.04232519865036011
-0.01078462041914463 0.002145199105143547 -0.04232519865036011
0.009142902679741383 -0.006109033711254597 -0.04232519865036011
-0.010995903983712196 -7.874398022522655e-09 -0.04232519865036011
0.010159033350646496 -0.004207977093756199 -0.04232519865036011
-0.01078462041914463 -0.0021452163346111774 -0.04232519865036011
0.010784766636788845 -0.002145207952708006 -0.04232519865036011
-0.010158887133002281 -0.004207983147352934 -0.04232519865036011
0.010996051132678986 1.913132763320391e-09 -0.04232519865036011
-0.009142745286226273 -0.00610904349014163 -0.04232519865036011
0.03740021586418152 0.00743939308449626 0.10726630687713623
0.03523019701242447 0.014592867344617844 0.10726630687713623
-0.026964057236909866 -0.02696404792368412 0.10726630687713623
-0.02118549682199955 -0.03170638531446457 0.10726630687713623
0.03170636296272278 0.021185539662837982 0.10726630687713623
-0.014592820778489113 -0.035230234265327454 0.10726630687713623
6.237967031808012e-09 0.03813290223479271 0.10726630687713623
-0.007439358159899712 0.03740016743540764 0.10726630687713623
0.02696401998400688 0.026964062824845314 0.10726630687713623
-0.007439349312335253 -0.03740020841360092 0.10726630687713623
-0.01459284033626318 0.035230208188295364 0.10726630687713623
0.021185463294386864 0.03170636668801308 0.10726630687713623
1.8663257606021944e-08 -0.0381329208612442 0.10726630687713623
-0.02118549682199955 0.03170636668801308 0.10726630687713623
0.014592789113521576 0.035230234265327454 0.10726630687713623
0.007439387962222099 -0.03740020841360092 0.10726630687713623
-0.026964057236909866 0.02696402557194233 0.10726630687713623
0.007439317647367716 0.03740021213889122 0.10726630687713623
0.014592859894037247 -0.035230234265327454 0.10726630687713623
-0.03170635923743248 0.021185506135225296 0.10726630687713623
0.021185534074902534 -0.03170635551214218 0.10726630687713623
-0.035230230540037155 0.014592830091714859 0.10726630687713623
0.026964055374264717 -0.02696404792368412 0.10726630687713623
-0.03740020841360092 0.007439348381012678 0.10726630687713623
0.031706396490335464 -0.021185489371418953 0.10726630687713623
-0.0381329208612442 -9.347647988988683e-09 0.10726630687713623
0.035230234265327454 -0.01459281612187624 0.10726630687713623
-0.03740020841360092 -0.0074393730610609055 0.10726630687713623
0.03740021586418152 -0.007439343724399805 0.10726630687713623
-0.035230230540037155 -0.014592835679650307 0.10726630687713623
