-0.035338789224624634 -6.010388631239039e-09 0.04722451791167259
-0.04594515636563301 -1.4510705526049605e-08 0.03919478878378868
-0.05363820120692253 -1.5385930751676824e-08 0.028908904641866684
-0.058507177978754044 -1.5905939676486014e-08 0.017748065292835236
-0.060745734721422195 -1.6183665962898885e-08 0.008200079202651978
-0.05974699556827545 -1.6201910923996365e-08 -0.005465702153742313
-0.013221594505012035 -1.3381438179749239e-08 -0.04046425223350525
-0.03465976193547249 0.006894250400364399 0.04722451791167259
-0.045062337070703506 0.008963439613580704 0.03919478878378868
-0.05260755121707916 0.010464277118444443 0.028908904641866684
-0.0573829747736454 0.011414166539907455 0.017748065292835236
-0.05957852676510811 0.011850886046886444 0.008200079202651978
-0.05859896168112755 0.011656041257083416 -0.005465702153742313
-0.05565688759088516 0.011070827022194862 -0.016626540571451187
-0.049761250615119934 0.0098981112241745 -0.02691243588924408
-0.04026408493518829 0.008009008131921291 -0.035928092896938324
-0.02615036815404892 -1.2910017943568164e-08 -0.04046425223350525
-0.025647899135947227 -0.00510169705376029 -0.04046425223350525
-0.02415979653596878 -0.010007327422499657 -0.04046425223350525
-0.032648779451847076 0.013523565605282784 0.04722451791167259
-0.04244779050350189 0.01758243516087532 0.03919478878378868
-0.049555230885744095 0.020526431500911713 0.028908904641866684
-0.05405357480049133 0.022389709949493408 0.017748065292835236
-0.05612173676490784 0.023246364668011665 0.008200079202651978
-0.05519901588559151 0.022864164784550667 -0.005465702153742313
-0.05242764204740524 0.021716224029660225 -0.016626540571451187
-0.046874064952135086 0.019415857270359993 -0.02691243588924408
-0.037927933037281036 0.015710249543190002 -0.035928092896938324
-0.02174324356019497 -0.014528382569551468 -0.04046425223350525
-0.0184911098331213 -0.018491117283701897 -0.04046425223350525
-0.014528373256325722 -0.021743254736065865 -0.04046425223350525
-0.029383128508925438 0.019633173942565918 0.04722451791167259
-0.03820200264453888 0.025525743141770363 0.03919478878378868
-0.0445985347032547 0.029799766838550568 0.028908904641866684
-0.04864693060517311 0.032504819333553314 0.017748065292835236
-0.05050821974873543 0.03374850004911423 0.008200079202651978
-0.04967780411243439 0.03319362550973892 -0.005465702153742313
-0.047183629125356674 0.0315270721912384 -0.016626540571451187
-0.042185552418231964 0.02818746492266655 -0.02691243588924408
-0.03413424640893936 0.022807756438851357 -0.035928092896938324
-0.010007321834564209 -0.024159803986549377 -0.04046425223350525
-0.005101688206195831 -0.02564791403710842 -0.04046425223350525
-3.905724188513204e-09 -0.026150383055210114 -0.04046425223350525
-0.02498830109834671 0.024988288059830666 0.04722451791167259
-0.0324881337583065 0.03248811513185501 0.03919478878378868
-0.03792792931199074 0.037927910685539246 0.028908904641866684
-0.04137082025408745 0.04137079790234566 0.017748065292835236
-0.04295371472835541 0.04295370355248451 0.008200079202651978
-0.04224749654531479 0.042247477918863297 -0.005465702153742313
-0.04012637957930565 0.040126360952854156 -0.016626540571451187
-0.03587586060166359 0.0358758419752121 -0.02691243588924408
-0.029028793796896935 0.029028767719864845 -0.035928092896938324
0.005101682152599096 -0.02564791776239872 -0.04046425223350525
0.010007309727370739 -0.024159807711839676 -0.04046425223350525
0.014528363943099976 -0.02174326218664646 -0.04046425223350525
-0.019633179530501366 0.02938312292098999 0.04722451791167259
-0.025525767356157303 0.03820198401808739 0.03919478878378868
-0.029799791052937508 0.04459851607680321 0.028908904641866684
-0.032504841685295105 0.048646919429302216 0.017748065292835236
-0.03374852240085602 0.05050820857286453 0.008200079202651978
-0.03319364786148071 0.049677781760692596 -0.005465702153742313
-0.03152710571885109 0.04718361049890518 -0.016626540571451187
-0.02818748913705349 0.04218553379178047 -0.02691243588924408
-0.022807776927947998 0.03413422405719757 -0.035928092896938324
0.018491106107831 -0.018491126596927643 -0.04046425223350525
0.02174323983490467 -0.014528386294841766 -0.04046425223350525
0.02415979839861393 -0.01000733207911253 -0.04046425223350525
-0.013523569330573082 0.032648779451847076 0.04722451791167259
-0.017582455649971962 0.0424477718770504 0.03919478878378868
-0.02052645944058895 0.049555208534002304 0.028908904641866684
-0.02238972671329975 0.05405355244874954 0.017748065292835236
-0.023246387019753456 0.056121714413166046 0.008200079202651978
-0.02286418154835701 0.05519898608326912 -0.005465702153742313
-0.021716250106692314 0.052427612245082855 -0.016626540571451187
-0.019415881484746933 0.04687405377626419 -0.02691243588924408
-0.015710273757576942 0.037927914410829544 -0.035928092896938324
0.025647900998592377 -0.005101703107357025 -0.04046425223350525
0.026150375604629517 -1.723681819498779e-08 -0.04046425223350525
0.025647904723882675 0.00510166771709919 -0.04046425223350525
-0.006894255056977272 0.03465975448489189 0.04722451791167259
-0.008963464759290218 0.045062314718961716 0.03919478878378868
-0.010464305989444256 0.05260752886533737 0.028908904641866684
-0.011414188891649246 0.057382941246032715 0.017748065292835236
-0.011850911192595959 0.05957849696278572 0.008200079202651978
-0.011656062677502632 0.05859893560409546 -0.005465702153742313
-0.011070860549807549 0.055656857788562775 -0.016626540571451187
-0.00989813543856144 0.049761224538087845 -0.02691243588924408
-0.00800903607159853 0.0402640625834465 -0.035928092896938324
0.024159802123904228 0.010007296688854694 -0.04046425223350525
0.02174324542284012 0.014528355561196804 -0.04046425223350525
0.0184911098331213 0.018491091206669807 -0.04046425223350525
-4.16524897906001e-10 0.03533877804875374 0.04722451791167259
-1.0393313765177936e-08 0.04594513401389122 0.03919478878378868
-1.380257863559109e-08 0.05363817512989044 0.028908904641866684
-6.862195700563234e-09 0.05850714072585106 0.017748065292835236
-7.790967870846544e-09 0.06074570491909981 0.008200079202651978
-6.752284509303763e-09 0.05974695459008217 -0.005465702153742313
-1.6752583320567282e-08 0.05674723908305168 -0.016626540571451187
-9.888005081393203e-09 0.05073610320687294 -0.02691243588924408
-1.0657077886833122e-08 0.04105288162827492 -0.035928092896938324
0.014528368599712849 0.021743226796388626 -0.04046425223350525
0.010007314383983612 0.024159785360097885 -0.04046425223350525
0.0051016854122281075 0.02564788982272148 -0.04046425223350525
0.006894254125654697 0.03465975075960159 0.04722451791167259
0.008963439613580704 0.04506231099367142 0.03919478878378868
0.010464276187121868 0.05260752886533737 0.028908904641866684
0.011414170265197754 0.057382937520742416 0.017748065292835236
0.011850892566144466 0.05957849696278572 0.008200079202651978
0.011656044982373714 0.05859892815351486 -0.005465702153742313
0.01107082236558199 0.055656857788562775 -0.016626540571451187
0.009898114018142223 0.049761220812797546 -0.02691243588924408
0.008009009063243866 0.040264058858156204 -0.035928092896938324
-1.2321209608145978e-09 0.02615036442875862 -0.04046425223350525
-0.005101687740534544 0.02564789541065693 -0.04046425223350525
-0.010007321834564209 0.024159785360097885 -0.04046425223350525
0.013523565605282784 0.03264877572655678 0.04722451791167259
0.01758243329823017 0.042447756975889206 0.03919478878378868
0.020526431500911713 0.049555208534002304 0.028908904641866684
0.022389709949493408 0.05405354127287865 0.017748065292835236
0.023246370255947113 0.05612171068787575 0.008200079202651978
0.022864162921905518 0.05519897863268852 -0.005465702153742313
0.021716218441724777 0.052427612245082855 -0.016626540571451187
0.01941586099565029 0.046874042600393295 -0.02691243588924408
0.01571025140583515 0.037927910685539246 -0.035928092896938324
-0.01452837884426117 0.021743232384324074 -0.04046425223350525
-0.018491113558411598 0.018491096794605255 -0.04046425223350525
-0.021743252873420715 0.014528358355164528 -0.04046425223350525
0.01963317207992077 0.029383119195699692 0.04722451791167259
0.025525741279125214 0.03820197284221649 0.03919478878378868
0.02979976311326027 0.04459851235151291 0.028908904641866684
0.03250482305884361 0.04864690080285072 0.017748065292835236
0.033748503774404526 0.050508201122283936 0.008200079202651978
0.03319362550973892 0.049677763134241104 -0.005465702153742313
0.031527064740657806 0.04718360677361488 -0.016626540571451187
0.02818746492266655 0.04218551889061928 -0.02691243588924408
0.022807752713561058 0.03413422033190727 -0.035928092896938324
-0.02415980026125908 0.010007300414144993 -0.04046425223350525
-0.025647912174463272 0.005101668648421764 -0.04046425223350525
-0.03546912968158722 0.007055229973047972 -0.04046425223350525
0.024988288059830666 0.024988286197185516 0.04722451791167259
0.03248811885714531 0.03248810023069382 0.03919478878378868
0.03792790696024895 0.037927910685539246 0.028908904641866684
0.04137079790234566 0.04137078672647476 0.017748065292835236
0.04295370355248451 0.04295369237661362 0.008200079202651978
0.042247477918863297 0.0422474667429924 -0.005465702153742313
0.040126360952854156 0.040126360952854156 -0.016626540571451187
0.0358758419752121 0.0358758270740509 -0.02691243588924408
0.029028762131929398 0.029028765857219696 -0.035928092896938324
-0.03341119736433029 0.013839351013302803 -0.04046425223350525
-0.03006928227841854 0.02009163424372673 -0.04046425223350525
-0.025571826845407486 0.025571798905730247 -0.04046425223350525
0.02938312292098999 0.01963317021727562 0.04722451791167259
0.03820198029279709 0.025525737553834915 0.03919478878378868
0.04459851235151291 0.029799770563840866 0.028908904641866684
0.04864691197872162 0.03250481188297272 0.017748065292835236
0.05050820857286453 0.03374849632382393 0.008200079202651978
0.0496777780354023 0.033193621784448624 -0.005465702153742313
0.04718360677361488 0.0315270759165287 -0.016626540571451187
0.04218553006649017 0.028187455609440804 -0.02691243588924408
0.03413422405719757 0.022807752713561058 -0.035928092896938324
-0.020091652870178223 0.0300692617893219 -0.04046425223350525
-0.013839371502399445 0.0334111787378788 -0.04046425223350525
-0.007055251393467188 0.035469114780426025 -0.04046425223350525
-8.078247515364012e-10 0.036163996905088425 -0.04046425223350525
0.032648779451847076 0.013523560017347336 0.04722451791167259
0.0424477644264698 0.017582427710294724 0.03919478878378868
0.049555208534002304 0.02052643522620201 0.028908904641866684
0.054053548723459244 0.022389696910977364 0.017748065292835236
0.056121714413166046 0.023246360942721367 0.008200079202651978
0.05519898235797882 0.02286415547132492 -0.005465702153742313
0.052427612245082855 0.021716225892305374 -0.016626540571451187
0.046874046325683594 0.019415849819779396 -0.02691243588924408
0.03792790696024895 0.015710243955254555 -0.035928092896938324
0.007055248133838177 0.035469114780426025 -0.04046425223350525
0.013839364983141422 0.0334111787378788 -0.04046425223350525
0.020091645419597626 0.0300692580640316 -0.04046425223350525
0.03465975448489189 0.006894249003380537 0.04722451791167259
0.04506230354309082 0.00896343495696783 0.03919478878378868
0.05260752514004707 0.010464281775057316 0.028908904641866684
0.057382941246032715 0.011414161883294582 0.017748065292835236
0.05957849323749542 0.011850884184241295 0.008200079202651978
0.05859892815351486 0.011656036600470543 -0.005465702153742313
0.055656857788562775 0.011070831678807735 -0.016626540571451187
0.04976121336221695 0.009898105636239052 -0.02691243588924408
0.040264058858156204 0.008009007200598717 -0.035928092896938324
0.02557181380689144 0.0255717970430851 -0.04046425223350525
0.030069272965192795 0.020091630518436432 -0.04046425223350525
0.033411186188459396 0.013839345425367355 -0.04046425223350525
0.03533877432346344 -4.2122967336410966e-09 0.04722451791167259
0.045945119112730026 -1.5215453785799582e-08 0.03919478878378868
0.05363817140460014 -7.006095259498579e-09 0.028908904641866684
0.058507125824689865 -1.588805886854061e-08 0.017748065292835236
0.06074569374322891 -1.6968604299449908e-08 0.008200079202651978
0.05974694341421127 -1.6183639317546294e-08 -0.005465702153742313
0.05674723908305168 -6.962261434040329e-09 -0.016626540571451187
0.050736088305711746 -1.6632732524612948e-08 -0.02691243588924408
0.04105287790298462 -1.2746975919242232e-08 -0.035928092896938324
0.03546912968158722 0.007055229041725397 -0.04046425223350525
0.03616400435566902 -1.8420323044665565e-08 -0.04046425223350525
0.03546912223100662 -0.007055265828967094 -0.04046425223350525
0.03465975075960159 -0.006894257385283709 0.04722451791167259
0.04506229609251022 -0.008963464759290218 0.03919478878378868
0.05260752514004707 -0.010464297607541084 0.028908904641866684
0.05738293007016182 -0.011414192616939545 0.017748065292835236
0.059578489512205124 -0.011850915849208832 0.008200079202651978
0.05859891697764397 -0.01165606640279293 -0.005465702153742313
0.055656857788562775 -0.011070845648646355 -0.016626540571451187
0.04976120591163635 -0.009898136369884014 -0.02691243588924408
0.040264055132865906 -0.008009033277630806 -0.035928092896938324
0.0334111824631691 -0.01383938267827034 -0.04046425223350525
0.030069267377257347 -0.02009166218340397 -0.04046425223350525
0.025571811944246292 -0.025571832433342934 -0.04046425223350525
0.03264877200126648 -0.013523567467927933 0.04722451791167259
0.04244774580001831 -0.017582451924681664 0.03919478878378868
0.049555208534002304 -0.020526448264718056 0.028908904641866684
0.05405353754758835 -0.0223897285759449 0.017748065292835236
0.05612171068787575 -0.023246396332979202 0.008200079202651978
0.055198974907398224 -0.02286418341100216 -0.005465702153742313
0.052427612245082855 -0.02171623893082142 -0.016626540571451187
0.0468740276992321 -0.019415877759456635 -0.02691243588924408
0.03792790696024895 -0.015710270032286644 -0.035928092896938324
0.020091641694307327 -0.030069289728999138 -0.04046425223350525
0.01383936032652855 -0.03341119736433029 -0.04046425223350525
0.007055243942886591 -0.035469137132167816 -0.04046425223350525
0.029383115470409393 -0.019633173942565918 0.04722451791167259
0.038201961666345596 -0.025525756180286407 0.03919478878378868
0.04459850862622261 -0.02979978173971176 0.028908904641866684
0.048646897077560425 -0.032504841685295105 0.017748065292835236
0.05050819739699364 -0.03374852240085602 0.008200079202651978
0.04967775568366051 -0.033193644136190414 -0.005465702153742313
0.047183603048324585 -0.031527079641819 -0.016626540571451187
0.042185503989458084 -0.028187477961182594 -0.02691243588924408
0.034134216606616974 -0.02280777134001255 -0.035928092896938324
-4.505195771997705e-09 -0.036164019256830215 -0.04046425223350525
-0.007055251393467188 -0.03546913340687752 -0.04046425223350525
-0.013839371502399445 -0.03341119363903999 -0.04046425223350525
0.024988286197185516 -0.024988293647766113 0.04722451791167259
0.03248809278011322 -0.03248812258243561 0.03919478878378868
0.03792790696024895 -0.03792792558670044 0.028908904641866684
0.041370779275894165 -0.04137080907821655 0.017748065292835236
0.04295368492603302 -0.042953722178936005 0.008200079202651978
0.0422474630177021 -0.04224748909473419 -0.005465702153742313
0.04012635722756386 -0.04012637212872505 -0.016626540571451187
0.03587581589818001 -0.035875849425792694 -0.02691243588924408
0.02902876026928425 -0.02902878448367119 -0.035928092896938324
-0.020091645419597626 -0.03006928414106369 -0.04046425223350525
-0.025571810081601143 -0.025571824982762337 -0.04046425223350525
-0.030069269239902496 -0.02009165845811367 -0.04046425223350525
0.01963316835463047 -0.02938312105834484 0.04722451791167259
0.02552572265267372 -0.03820198401808739 0.03919478878378868
0.029799766838550568 -0.0445985272526741 0.028908904641866684
0.03250480815768242 -0.048646919429302216 0.017748065292835236
0.03374849259853363 -0.050508223474025726 0.008200079202651978
0.03319361433386803 -0.049677785485982895 -0.005465702153742313
0.031527068465948105 -0.04718361794948578 -0.016626540571451187
0.02818744257092476 -0.04218553006649017 -0.02691243588924408
0.02280774898827076 -0.034134238958358765 -0.035928092896938324
-0.033411186188459396 -0.013839377090334892 -0.04046425223350525
-0.035469114780426025 -0.007055258844047785 -0.04046425223350525
-0.036163993179798126 -1.2436692564676832e-08 -0.04046425223350525
0.013523560017347336 -0.03264877200126648 0.04722451791167259
0.017582416534423828 -0.0424477644264698 0.03919478878378868
0.020526433363556862 -0.0495552234351635 0.028908904641866684
0.022389687597751617 -0.05405355989933014 0.017748065292835236
0.02324635721743107 -0.05612172558903694 0.008200079202651978
0.022864144295454025 -0.055198993533849716 -0.005465702153742313
0.021716224029660225 -0.05242763087153435 -0.016626540571451187
0.01941584423184395 -0.046874042600393295 -0.02691243588924408
0.015710247680544853 -0.03792792931199074 -0.035928092896938324
-0.036163993179798126 -1.2436692564676832e-08 -0.03779592365026474
-0.035469114780426025 -0.007055258844047785 -0.03779592365026474
-0.033411186188459396 -0.013839377090334892 -0.03779592365026474
0.006894250400364399 -0.03465975075960159 0.04722451791167259
0.008963429369032383 -0.04506230726838112 0.03919478878378868
0.010464281775057316 -0.052607543766498566 0.028908904641866684
0.01141415536403656 -0.057382941246032715 0.017748065292835236
0.011850879527628422 -0.05957849696278572 0.008200079202651978
0.01165603008121252 -0.058598924428224564 -0.005465702153742313
0.011070831678807735 -0.05565687641501427 -0.016626540571451187
0.009898100048303604 -0.04976121336221695 -0.02691243588924408
0.008009004406630993 -0.0402640774846077 -0.035928092896938324
-0.030069269239902496 -0.02009165845811367 -0.03779592365026474
-0.025571810081601143 -0.025571824982762337 -0.03779592365026474
-0.020091645419597626 -0.03006928414106369 -0.03779592365026474
-4.029497180368935e-09 -0.03533877432346344 0.04722451791167259
-1.7080932224189382e-08 -0.04594512656331062 0.03919478878378868
-6.517999917576844e-09 -0.05363818630576134 0.028908904641866684
-1.9525433714306928e-08 -0.058507129549980164 0.017748065292835236
-1.6963319637852692e-08 -0.06074570119380951 0.008200079202651978
-1.968385987538568e-08 -0.05974695086479187 -0.005465702153742313
-6.299950783272834e-09 -0.056747253984212875 -0.016626540571451187
-1.7272965280312746e-08 -0.05073609575629234 -0.02691243588924408
-1.4854228069793862e-08 -0.04105289280414581 -0.035928092896938324
-0.013839371502399445 -0.03341119363903999 -0.03779592365026474
-0.007055251393467188 -0.03546913340687752 -0.03779592365026474
-4.505195771997705e-09 -0.036164019256830215 -0.03779592365026474
-0.006894255988299847 -0.034659747034311295 0.04722451791167259
-0.008963465690612793 -0.04506229609251022 0.03919478878378868
-0.010464297607541084 -0.05260754004120827 0.028908904641866684
-0.011414194479584694 -0.05738293007016182 0.017748065292835236
-0.011850914917886257 -0.059578489512205124 0.008200079202651978
-0.011656070128083229 -0.05859891697764397 -0.005465702153742313
-0.011070845648646355 -0.05565687641501427 -0.016626540571451187
-0.009898136369884014 -0.04976120963692665 -0.02691243588924408
-0.008009037002921104 -0.0402640737593174 -0.035928092896938324
0.007055243942886591 -0.035469137132167816 -0.03779592365026474
0.01383936032652855 -0.03341119736433029 -0.03779592365026474
0.020091641694307327 -0.030069289728999138 -0.03779592365026474
-0.013523569330573082 -0.03264876827597618 0.04722451791167259
-0.017582450062036514 -0.042447756975889206 0.03919478878378868
-0.020526446402072906 -0.0495552197098732 0.028908904641866684
-0.02238972671329975 -0.05405353754758835 0.017748065292835236
-0.023246388882398605 -0.05612170696258545 0.008200079202651978
-0.02286417968571186 -0.055198974907398224 -0.005465702153742313
-0.02171623520553112 -0.05242762714624405 -0.016626540571451187
-0.019415875896811485 -0.0468740351498127 -0.02691243588924408
-0.015710271894931793 -0.03792792186141014 -0.035928092896938324
0.025571811944246292 -0.025571832433342934 -0.03779592365026474
0.030069267377257347 -0.02009166218340397 -0.03779592365026474
0.0334111824631691 -0.01383938267827034 -0.03779592365026474
-0.01963317207992077 -0.029383117333054543 0.04722451791167259
-0.025525754317641258 -0.03820196911692619 0.03919478878378868
-0.02979978173971176 -0.044598523527383804 0.028908904641866684
-0.03250483050942421 -0.048646897077560425 0.017748065292835236
-0.03374851122498512 -0.05050819739699364 0.008200079202651978
-0.03319363296031952 -0.049677759408950806 -0.005465702153742313
-0.0315270833671093 -0.04718361794948578 -0.016626540571451187
-0.028187472373247147 -0.04218551516532898 -0.02691243588924408
-0.02280777134001255 -0.03413423150777817 -0.035928092896938324
0.03546912223100662 -0.007055265828967094 -0.03779592365026474
0.03616400435566902 -1.8420323044665565e-08 -0.03779592365026474
0.03546912968158722 0.007055229041725397 -0.03779592365026474
-0.024988286197185516 -0.024988286197185516 0.04722451791167259
-0.03248811513185501 -0.03248810023069382 0.03919478878378868
-0.037927914410829544 -0.03792792558670044 0.028908904641866684
-0.04137079790234566 -0.041370783001184464 0.017748065292835236
-0.042953699827194214 -0.04295368492603302 0.008200079202651978
-0.042247477918863297 -0.0422474630177021 -0.005465702153742313
-0.04012636840343475 -0.04012637212872505 -0.016626540571451187
-0.0358758419752121 -0.0358758270740509 -0.02691243588924408
-0.02902878262102604 -0.02902877889573574 -0.035928092896938324
0.033411186188459396 0.013839345425367355 -0.03779592365026474
0.030069272965192795 0.020091630518436432 -0.03779592365026474
0.02557181380689144 0.0255717970430851 -0.03779592365026474
-0.029383119195699692 -0.01963316835463047 0.04722451791167259
-0.03820197656750679 -0.025525741279125214 0.03919478878378868
-0.04459851235151291 -0.02979978173971176 0.028908904641866684
-0.04864690080285072 -0.032504815608263016 0.017748065292835236
-0.050508204847574234 -0.03374849632382393 0.008200079202651978
-0.0496777668595314 -0.033193618059158325 -0.005465702153742313
-0.04718361049890518 -0.0315270833671093 -0.016626540571451187
-0.042185522615909576 -0.028187455609440804 -0.02691243588924408
-0.03413423150777817 -0.022807765752077103 -0.035928092896938324
0.020091645419597626 0.0300692580640316 -0.03779592365026474
0.013839364983141422 0.0334111787378788 -0.03779592365026474
0.007055248133838177 0.035469114780426025 -0.03779592365026474
-0.03264877200126648 -0.01352356094866991 0.04722451791167259
-0.042447756975889206 -0.017582431435585022 0.03919478878378868
-0.0495552122592926 -0.020526451990008354 0.028908904641866684
-0.05405353754758835 -0.02238970249891281 0.017748065292835236
-0.05612169951200485 -0.023246362805366516 0.008200079202651978
-0.055198974907398224 -0.02286415733397007 -0.005465702153742313
-0.052427615970373154 -0.021716240793466568 -0.016626540571451187
-0.046874038875103 -0.019415853545069695 -0.02691243588924408
-0.03792791813611984 -0.015710264444351196 -0.035928092896938324
-8.078247515364012e-10 0.036163996905088425 -0.03779592365026474
-0.007055251393467188 0.035469114780426025 -0.03779592365026474
-0.013839371502399445 0.0334111787378788 -0.03779592365026474
-0.034659743309020996 -0.006894250866025686 0.04722451791167259
-0.045062292367219925 -0.008963445201516151 0.03919478878378868
-0.05260753259062767 -0.010464300401508808 0.028908904641866684
-0.05738292634487152 -0.011414173059165478 0.017748065292835236
-0.05957847088575363 -0.01185089536011219 0.008200079202651978
-0.05859890952706337 -0.011656047776341438 -0.005465702153742313
-0.05565686151385307 -0.011070850305259228 -0.016626540571451187
-0.049761202186346054 -0.009898116812109947 -0.02691243588924408
-0.0402640663087368 -0.008009026758372784 -0.035928092896938324
-0.020091652870178223 0.0300692617893219 -0.03779592365026474
-0.025571826845407486 0.025571798905730247 -0.03779592365026474
-0.03006928227841854 0.02009163424372673 -0.03779592365026474
-0.05674724280834198 -1.192326504195762e-08 -0.016626540571451187
-0.05073607712984085 7.541751667616836e-10 -0.02691243588924408
-0.04105288162827492 -5.9544285058166224e-09 -0.035928092896938324
-0.03341119736433029 0.013839351013302803 -0.03779592365026474
-0.03546912968158722 0.007055229973047972 -0.03779592365026474
-0.012967546470463276 -0.002579418011009693 -0.04046425223350525
-0.012215161696076393 -0.0050596981309354305 -0.04046425223350525
-0.010993357747793198 -0.007345537189394236 -0.04046425223350525
-0.009349081665277481 -0.009349091909825802 -0.04046425223350525
-0.0073455264791846275 -0.010993367061018944 -0.04046425223350525
-0.0050596874207258224 -0.012215173803269863 -0.04046425223350525
-0.0025794077664613724 -0.012967557646334171 -0.04046425223350525
-2.892227568551675e-09 -0.013221608474850655 -0.04046425223350525
0.0025794024113565683 -0.012967560440301895 -0.04046425223350525
0.005059682764112949 -0.012215173803269863 -0.04046425223350525
0.007345521356910467 -0.010993370786309242 -0.04046425223350525
0.009349075146019459 -0.0093490956351161 -0.04046425223350525
0.0109933502972126 -0.007345539052039385 -0.04046425223350525
0.012215157970786095 -0.005059699062258005 -0.04046425223350525
0.012967541813850403 -0.0025794210378080606 -0.04046425223350525
0.013221592642366886 -1.5569058930964275e-08 -0.04046425223350525
0.012967543676495552 0.00257938914000988 -0.04046425223350525
0.01221515890210867 0.005059669725596905 -0.04046425223350525
0.010993353091180325 0.007345510181039572 -0.04046425223350525
0.009349077008664608 0.009349064901471138 -0.04046425223350525
0.007345522753894329 0.010993340983986855 -0.04046425223350525
0.005059684626758099 0.012215148657560349 -0.04046425223350525
0.0025794045068323612 0.012967532500624657 -0.04046425223350525
-1.5404714170941247e-09 0.013221582397818565 -0.04046425223350525
-0.002579407300800085 0.012967533431947231 -0.04046425223350525
-0.00505968788638711 0.012215148657560349 -0.04046425223350525
-0.007345528807491064 0.010993342846632004 -0.04046425223350525
-0.009349084459245205 0.009349066764116287 -0.04046425223350525
-0.010993360541760921 0.007345511578023434 -0.04046425223350525
-0.012215165421366692 0.005059671588242054 -0.04046425223350525
-0.012967552058398724 0.0025793896056711674 -0.04046425223350525
-0.060657795518636703 -1.6189085627615896e-08 -9.363051503896713e-05
-0.05949227511882782 0.011833731085062027 -9.363051503896713e-05
-0.05604049563407898 0.02321271412074566 -9.363051503896713e-05
-0.050435107201337814 0.0336996428668499 -9.363051503896713e-05
-0.04289153218269348 0.042891521006822586 -9.363051503896713e-05
-0.03369966521859169 0.05043508857488632 -9.363051503896713e-05
-0.0232127346098423 0.05604047700762749 -9.363051503896713e-05
-0.011833755299448967 0.05949224531650543 -9.363051503896713e-05
-7.517367173193179e-09 0.06065777316689491 -9.363051503896713e-05
0.011833736672997475 0.05949224531650543 -9.363051503896713e-05
0.023212719708681107 0.05604046955704689 -9.363051503896713e-05
0.0336996465921402 0.050435081124305725 -9.363051503896713e-05
0.04289151728153229 0.04289150610566139 -9.363051503896713e-05
0.05043509230017662 0.0336996391415596 -9.363051503896713e-05
0.05604047328233719 0.02321270853281021 -9.363051503896713e-05
0.05949224904179573 0.011833728291094303 -9.363051503896713e-05
0.06065775454044342 -1.677000405209128e-08 -9.363051503896713e-05
0.059492241591215134 -0.011833760887384415 -9.363051503896713e-05
0.05604046583175659 -0.023212742060422897 -9.363051503896713e-05
0.05043507739901543 -0.03369966894388199 -9.363051503896713e-05
0.042891502380371094 -0.04289153963327408 -9.363051503896713e-05
0.0336996354162693 -0.050435103476047516 -9.363051503896713e-05
0.023212702944874763 -0.056040480732917786 -9.363051503896713e-05
0.011833724565804005 -0.05949224904179573 -9.363051503896713e-05
-1.7680109820616963e-08 -0.06065776199102402 -9.363051503896713e-05
-0.01183375995606184 -0.059492241591215134 -9.363051503896713e-05
-0.0232127346098423 -0.05604046583175659 -9.363051503896713e-05
-0.033699654042720795 -0.050435081124305725 -9.363051503896713e-05
-0.042891521006822586 -0.04289150983095169 -9.363051503896713e-05
-0.050435081124305725 -0.0336996391415596 -9.363051503896713e-05
-0.05604046210646629 -0.02321271412074566 -9.363051503896713e-05
-0.05949221923947334 -0.011833738535642624 -9.363051503896713e-05
-0.04181743040680885 -9.511339271739416e-09 0.129038006067276
-0.041013915091753006 0.008158166892826557 0.129038006067276
-0.03863426297903061 0.016002826392650604 0.129038006067276
-0.03476991876959801 0.023232510313391685 0.129038006067276
-0.029569391161203384 0.02956937626004219 0.129038006067276
-0.02323251962661743 0.03476991504430771 0.129038006067276
-0.0160028375685215 0.03863425552845001 0.129038006067276
-0.008158179000020027 0.04101390391588211 0.129038006067276
-1.9755133084942145e-09 0.04181741923093796 0.129038006067276
0.008158172480762005 0.04101390019059181 0.129038006067276
0.016002830117940903 0.03863425552845001 0.129038006067276
0.023232510313391685 0.03476991131901741 0.129038006067276
0.02956937626004219 0.02956937439739704 0.129038006067276
0.03476991876959801 0.023232506588101387 0.129038006067276
0.03863425552845001 0.016002824530005455 0.129038006067276
0.04101390391588211 0.008158165030181408 0.129038006067276
0.04181741923093796 -7.383598621402143e-09 0.129038006067276
0.04101390019059181 -0.008158180862665176 0.129038006067276
0.038634251803159714 -0.0160028375685215 0.129038006067276
0.03476990759372711 -0.023232515901327133 0.129038006067276
0.02956937439739704 -0.029569383710622787 0.129038006067276
0.023232506588101387 -0.03476991131901741 0.129038006067276
0.016002826392650604 -0.03863425925374031 0.129038006067276
0.008158166892826557 -0.04101390764117241 0.129038006067276
-6.250841178001565e-09 -0.041817422956228256 0.129038006067276
-0.008158179000020027 -0.04101390391588211 0.129038006067276
-0.01600283570587635 -0.03863425552845001 0.129038006067276
-0.023232512176036835 -0.03476990759372711 0.129038006067276
-0.02956937812268734 -0.02956937812268734 0.129038006067276
-0.03476990759372711 -0.023232510313391685 0.129038006067276
-0.038634251803159714 -0.016002830117940903 0.129038006067276
-0.041013896465301514 -0.008158172480762005 0.129038006067276
0.006848147138953209 0.034427959471940994 0.04845457524061203
0.013433121144771576 0.03243042901158333 0.04845457524061203
0.024821169674396515 -0.024821173399686813 0.04845457524061203
0.019501864910125732 -0.029186608269810677 0.04845457524061203
-0.03243042528629303 -0.013433117419481277 0.04845457524061203
-0.0344279408454895 -0.006848142948001623 0.04845457524061203
-4.1954939522526047e-10 0.03510243818163872 0.04845457524061203
-0.013433124870061874 -0.032430414110422134 0.04845457524061203
-0.01950186863541603 -0.029186606407165527 0.04845457524061203
-0.02482117898762226 0.024821173399686813 0.04845457524061203
-0.01950187422335148 0.029186611995100975 0.04845457524061203
0.029186606407165527 -0.01950186863541603 0.04845457524061203
0.013433116488158703 -0.03243041783571243 0.04845457524061203
0.034427955746650696 0.006848141085356474 0.04845457524061203
0.03510243818163872 -4.1394359051594165e-09 0.04845457524061203
0.01950186863541603 0.029186610132455826 0.04845457524061203
-0.024821173399686813 -0.024821167811751366 0.04845457524061203
-0.013433124870061874 0.03243043273687363 0.04845457524061203
0.006848142482340336 -0.034427955746650696 0.04845457524061203
0.0344279520213604 -0.006848149932920933 0.04845457524061203
0.024821173399686813 0.024821173399686813 0.04845457524061203
-0.035102445632219315 -5.925513857363285e-09 0.04845457524061203
0.03243042156100273 -0.013433124870061874 0.04845457524061203
-0.029186608269810677 -0.019501864910125732 0.04845457524061203
-4.008353648998764e-09 -0.03510243818163872 0.04845457524061203
0.029186613857746124 0.01950186863541603 0.04845457524061203
-0.006848147604614496 0.034427959471940994 0.04845457524061203
-0.034427959471940994 0.006848142482340336 0.04845457524061203
-0.03243043273687363 0.01343312207609415 0.04845457524061203
-0.006848149001598358 -0.0344279520213604 0.04845457524061203
0.03243042156100273 0.013433116488158703 0.04845457524061203
-0.029186615720391273 0.01950187049806118 0.04845457524061203
-0.020091645419597626 -0.03006928414106369 -0.03998776525259018
-0.025571810081601143 -0.025571824982762337 -0.03998776525259018
0.020091641694307327 -0.030069289728999138 -0.03998776525259018
-0.020091652870178223 0.0300692617893219 -0.03998776525259018
-0.033411186188459396 -0.013839377090334892 -0.03998776525259018
-0.035469114780426025 -0.007055258844047785 -0.03998776525259018
0.007055243942886591 -0.035469137132167816 -0.03998776525259018
-0.030069269239902496 -0.02009165845811367 -0.03998776525259018
-0.03341119736433029 0.013839351013302803 -0.03998776525259018
0.025571811944246292 -0.025571832433342934 -0.03998776525259018
0.01383936032652855 -0.03341119736433029 -0.03998776525259018
-0.036163993179798126 -1.2436692564676832e-08 -0.03998776525259018
-0.03546912968158722 0.007055229973047972 -0.03998776525259018
0.033411186188459396 0.013839345425367355 -0.03998776525259018
-0.013839371502399445 0.0334111787378788 -0.03998776525259018
-0.013839371502399445 -0.03341119363903999 -0.03998776525259018
-0.025571826845407486 0.025571798905730247 -0.03998776525259018
0.02557181380689144 0.0255717970430851 -0.03998776525259018
0.030069272965192795 0.020091630518436432 -0.03998776525259018
0.03546912968158722 0.007055229041725397 -0.03998776525259018
0.03616400435566902 -1.8420323044665565e-08 -0.03998776525259018
-0.007055251393467188 0.035469114780426025 -0.03998776525259018
0.03546912223100662 -0.007055265828967094 -0.03998776525259018
0.0334111824631691 -0.01383938267827034 -0.03998776525259018
-8.078247515364012e-10 0.036163996905088425 -0.03998776525259018
0.007055248133838177 0.035469114780426025 -0.03998776525259018
0.030069267377257347 -0.02009166218340397 -0.03998776525259018
-0.03006928227841854 0.02009163424372673 -0.03998776525259018
0.013839364983141422 0.0334111787378788 -0.03998776525259018
0.020091645419597626 0.0300692580640316 -0.03998776525259018
-4.505195771997705e-09 -0.036164019256830215 -0.03998776525259018
-0.007055251393467188 -0.03546913340687752 -0.03998776525259018
