0.03684648498892784 1.9825299180098455e-09 -0.03313307464122772
0.03613848611712456 0.007188402581959963 -0.03313307464122772
0.03404171019792557 0.014100556261837482 -0.03313307464122772
0.030636722221970558 0.020470837131142616 -0.03313307464122772
0.026054387912154198 0.02605442702770233 -0.03313307464122772
0.020470794290304184 0.03063676878809929 -0.03313307464122772
0.014100519008934498 0.03404174745082855 -0.03313307464122772
0.007188364397734404 0.03613852709531784 -0.03313307464122772
-3.475655674378686e-08 0.036846525967121124 -0.03313307464122772
-0.007188433315604925 0.03613852709531784 -0.03313307464122772
-0.01410058606415987 0.03404174745082855 -0.03313307464122772
-0.020470868796110153 0.03063676878809929 -0.03313307464122772
-0.026054468005895615 0.02605442702770233 -0.03313307464122772
-0.030636809766292572 0.02047082968056202 -0.03313307464122772
-0.03404179587960243 0.014100552536547184 -0.03313307464122772
-0.03613857179880142 0.007188392803072929 -0.03313307464122772
-0.03684656322002411 -1.0902372338250643e-08 -0.03313307464122772
-0.03613857179880142 -0.00718841515481472 -0.03313307464122772
-0.03404178470373154 -0.014100568369030952 -0.03313307464122772
-0.030636796727776527 -0.02047084830701351 -0.03313307464122772
-0.026054445654153824 -0.026054441928863525 -0.03313307464122772
-0.02047084830701351 -0.030636778101325035 -0.03313307464122772
-0.01410056371241808 -0.03404175862669945 -0.03313307464122772
-0.007188404910266399 -0.036138538271188736 -0.03313307464122772
-1.0806171513166873e-09 -0.036846525967121124 -0.03313307464122772
0.007188401650637388 -0.036138519644737244 -0.03313307464122772
0.014100557193160057 -0.03404173254966736 -0.03313307464122772
0.02047083154320717 -0.0306367427110672 -0.03313307464122772
0.026054419577121735 -0.026054395362734795 -0.03313307464122772
0.030636753886938095 -0.020470786839723587 -0.03313307464122772
0.03404172882437706 -0.014100502245128155 -0.03313307464122772
0.03613849729299545 -0.007188343442976475 -0.03313307464122772
0.03684648498892784 1.9825299180098455e-09 -0.03313307464122772
0.03613848611712456 0.007188402581959963 -0.03313307464122772
0.03404171019792557 0.014100556261837482 -0.03313307464122772
0.030636722221970558 0.020470837131142616 -0.03313307464122772
0.026054387912154198 0.02605442702770233 -0.03313307464122772
0.020470794290304184 0.03063676878809929 -0.03313307464122772
0.014100519008934498 0.03404174745082855 -0.03313307464122772
0.007188364397734404 0.03613852709531784 -0.03313307464122772
-3.475655674378686e-08 0.036846525967121124 -0.03313307464122772
-0.007188433315604925 0.03613852709531784 -0.03313307464122772
-0.01410058606415987 0.03404174745082855 -0.03313307464122772
-0.020470868796110153 0.03063676878809929 -0.03313307464122772
-0.026054468005895615 0.02605442702770233 -0.03313307464122772
-0.030636809766292572 0.02047082968056202 -0.03313307464122772
-0.03404179587960243 0.014100552536547184 -0.03313307464122772
-0.03613857179880142 0.007188392803072929 -0.03313307464122772
-0.03684656322002411 -1.0902372338250643e-08 -0.03313307464122772
-0.03613857179880142 -0.00718841515481472 -0.03313307464122772
-0.03404178470373154 -0.014100568369030952 -0.03313307464122772
-0.030636796727776527 -0.02047084830701351 -0.03313307464122772
-0.026054445654153824 -0.026054441928863525 -0.03313307464122772
-0.02047084830701351 -0.030636778101325035 -0.03313307464122772
-0.01410056371241808 -0.03404175862669945 -0.03313307464122772
-0.007188404910266399 -0.036138538271188736 -0.03313307464122772
-1.0806171513166873e-09 -0.036846525967121124 -0.03313307464122772
0.007188401650637388 -0.036138519644737244 -0.03313307464122772
0.014100557193160057 -0.03404173254966736 -0.03313307464122772
0.02047083154320717 -0.0306367427110672 -0.03313307464122772
0.026054419577121735 -0.026054395362734795 -0.03313307464122772
0.030636753886938095 -0.020470786839723587 -0.03313307464122772
0.03404172882437706 -0.014100502245128155 -0.03313307464122772
0.03613849729299545 -0.007188343442976475 -0.03313307464122772
0.04804836958646774 -4.924167740227858e-09 0.061357609927654266
0.04712513089179993 0.009373769164085388 0.061357609927654266
0.04439089819788933 0.018387315794825554 0.061357609927654266
0.03995075076818466 0.026694251224398613 0.061357609927654266
0.03397531807422638 0.033975329250097275 0.061357609927654266
0.026694241911172867 0.039950765669345856 0.061357609927654266
0.018387308344244957 0.04439091309905052 0.061357609927654266
0.00937376357614994 0.04712514206767082 0.061357609927654266
-6.877941327587678e-09 0.04804838076233864 0.061357609927654266
-0.009373778477311134 0.04712514206767082 0.061357609927654266
-0.018387321382761 0.04439091309905052 0.061357609927654266
-0.02669426053762436 0.039950765669345856 0.061357609927654266
-0.03397534787654877 0.033975329250097275 0.061357609927654266
-0.039950788021087646 0.026694240048527718 0.061357609927654266
-0.044390928000211716 0.018387308344244957 0.061357609927654266
-0.047125160694122314 0.009373755194246769 0.061357609927654266
-0.04804840311408043 -2.172627233676394e-08 0.061357609927654266
-0.047125160694122314 -0.00937379989773035 0.061357609927654266
-0.04439091309905052 -0.01838734932243824 0.061357609927654266
-0.039950769394636154 -0.02669428288936615 0.061357609927654266
-0.03397532179951668 -0.03397536277770996 0.061357609927654266
-0.02669423446059227 -0.03995079547166824 0.061357609927654266
-0.018387293443083763 -0.04439093545079231 0.061357609927654266
-0.009373740293085575 -0.04712515324354172 0.061357609927654266
3.7035931654827436e-08 -0.04804838076233864 0.061357609927654266
0.009373814798891544 -0.04712513089179993 0.061357609927654266
0.018387360498309135 -0.04439089074730873 0.061357609927654266
0.026694290339946747 -0.03995074704289436 0.061357609927654266
0.03397536277770996 -0.03397529572248459 0.061357609927654266
0.039950791746377945 -0.026694200932979584 0.061357609927654266
0.04439092427492142 -0.018387259915471077 0.061357609927654266
0.04712514579296112 -0.009373707696795464 0.061357609927654266
0.0337822251021862 2.3941562066198685e-09 -0.03213531896471977
0.03313310444355011 0.006590594537556171 -0.03213531896471977
0.031210701912641525 0.012927914038300514 -0.03213531896471977
0.028088882565498352 0.018768424168229103 -0.03213531896471977
0.023887628689408302 0.023887664079666138 -0.03213531896471977
0.01876838319003582 0.028088929131627083 -0.03213531896471977
0.012927877716720104 0.031210744753479958 -0.03213531896471977
0.006590556353330612 0.03313314542174339 -0.03213531896471977
-3.4025500639245365e-08 0.03378225862979889 -0.03213531896471977
-0.006590624805539846 0.03313314542174339 -0.03213531896471977
-0.012927941977977753 0.031210744753479958 -0.03213531896471977
-0.01876845397055149 0.028088929131627083 -0.03213531896471977
-0.02388770319521427 0.023887664079666138 -0.03213531896471977
-0.028088964521884918 0.018768416717648506 -0.03213531896471977
-0.031210776418447495 0.012927909381687641 -0.03213531896471977
-0.03313318267464638 0.006590585689991713 -0.03213531896471977
-0.03378229960799217 -9.419196089766046e-09 -0.03213531896471977
-0.03313318267464638 -0.006590605713427067 -0.03213531896471977
-0.031210768967866898 -0.012927924282848835 -0.03213531896471977
-0.028088951483368874 -0.0187684316188097 -0.03213531896471977
-0.02388768456876278 -0.02388768270611763 -0.03213531896471977
-0.01876843348145485 -0.02808893658220768 -0.03213531896471977
-0.012927921488881111 -0.031210744753479958 -0.03213531896471977
-0.0065905991941690445 -0.03313314914703369 -0.03213531896471977
-3.150144367580765e-09 -0.03378225862979889 -0.03213531896471977
0.006590589880943298 -0.0331331305205822 -0.03213531896471977
0.012927912175655365 -0.031210724264383316 -0.03213531896471977
0.018768418580293655 -0.028088904917240143 -0.03213531896471977
0.02388765849173069 -0.02388763427734375 -0.03213531896471977
0.02808891050517559 -0.01876837946474552 -0.03213531896471977
0.031210720539093018 -0.01292786467820406 -0.03213531896471977
0.033133115619421005 -0.006590539589524269 -0.03213531896471977
0.033133115619421005 -0.006590539589524269 -0.03313307464122772
0.031210720539093018 -0.01292786467820406 -0.03313307464122772
0.02808891050517559 -0.01876837946474552 -0.03313307464122772
0.02388765849173069 -0.02388763427734375 -0.03313307464122772
0.018768418580293655 -0.028088904917240143 -0.03313307464122772
0.012927912175655365 -0.031210724264383316 -0.03313307464122772
0.006590589880943298 -0.0331331305205822 -0.03313307464122772
-3.150144367580765e-09 -0.03378225862979889 -0.03313307464122772
-0.0065905991941690445 -0.03313314914703369 -0.03313307464122772
-0.012927921488881111 -0.031210744753479958 -0.03313307464122772
-0.01876843348145485 -0.02808893658220768 -0.03313307464122772
-0.02388768456876278 -0.02388768270611763 -0.03313307464122772
-0.028088951483368874 -0.0187684316188097 -0.03313307464122772
-0.031210768967866898 -0.012927924282848835 -0.03313307464122772
-0.03313318267464638 -0.006590605713427067 -0.03313307464122772
-0.03378229960799217 -9.419196089766046e-09 -0.03313307464122772
-0.03313318267464638 0.006590585689991713 -0.03313307464122772
-0.031210776418447495 0.012927909381687641 -0.03313307464122772
-0.028088964521884918 0.018768416717648506 -0.03313307464122772
-0.02388770319521427 0.023887664079666138 -0.03313307464122772
-0.01876845397055149 0.028088929131627083 -0.03313307464122772
-0.012927941977977753 0.031210744753479958 -0.03313307464122772
-0.006590624805539846 0.03313314542174339 -0.03313307464122772
-3.4025500639245365e-08 0.03378225862979889 -0.03313307464122772
0.006590556353330612 0.03313314542174339 -0.03313307464122772
0.012927877716720104 0.031210744753479958 -0.03313307464122772
0.01876838319003582 0.028088929131627083 -0.03313307464122772
0.023887628689408302 0.023887664079666138 -0.03313307464122772
0.028088882565498352 0.018768424168229103 -0.03313307464122772
0.031210701912641525 0.012927914038300514 -0.03313307464122772
0.03313310444355011 0.006590594537556171 -0.03313307464122772
0.0337822251021862 2.3941562066198685e-09 -0.03313307464122772
0.04561959207057953 -4.583338597541342e-09 0.061357609927654266
0.04474303126335144 0.008899940177798271 0.061357609927654266
0.04214701056480408 0.017457865178585052 0.061357609927654266
0.037931304425001144 0.02534489519894123 0.061357609927654266
0.03225792571902275 0.03225792944431305 0.061357609927654266
0.025344889611005783 0.03793132305145264 0.061357609927654266
0.017457861453294754 0.04214702174067497 0.061357609927654266
0.008899932727217674 0.04474303871393204 0.061357609927654266
-6.3172231890007424e-09 0.04561961442232132 0.061357609927654266
-0.008899950422346592 0.04474303871393204 0.061357609927654266
-0.01745786890387535 0.04214702174067497 0.061357609927654266
-0.025344904512166977 0.03793132305145264 0.061357609927654266
-0.03225795179605484 0.03225792944431305 0.061357609927654266
-0.03793133422732353 0.025344891473650932 0.061357609927654266
-0.04214704781770706 0.017457857728004456 0.061357609927654266
-0.04474304988980293 0.008899926207959652 0.061357609927654266
-0.045619625598192215 -2.0536111478008934e-08 0.061357609927654266
-0.04474304988980293 -0.008899969048798084 0.061357609927654266
-0.04214702919125557 -0.01745789125561714 0.061357609927654266
-0.03793132305145264 -0.025344928726553917 0.061357609927654266
-0.03225792944431305 -0.032257962971925735 0.061357609927654266
-0.025344880297780037 -0.03793134167790413 0.061357609927654266
-0.017457840964198112 -0.04214704781770706 0.061357609927654266
-0.008899912238121033 -0.044743046164512634 0.061357609927654266
3.5376867657532785e-08 -0.04561961069703102 0.061357609927654266
0.008899982087314129 -0.04474302753806114 0.061357609927654266
0.017457906156778336 -0.04214701056480408 0.061357609927654266
0.025344932451844215 -0.037931300699710846 0.061357609927654266
0.032257966697216034 -0.03225789591670036 0.061357609927654266
0.03793134540319443 -0.02534485049545765 0.061357609927654266
0.04214703291654587 -0.017457813024520874 0.061357609927654266
0.04474303498864174 -0.008899880573153496 0.061357609927654266
0.009194034151732922 0.04622158780694008 0.061357609927654266
-6.665225704693967e-09 0.0471271313726902 0.061357609927654266
-0.02618240937590599 -0.03918479010462761 0.061357609927654266
-0.018034745007753372 -0.04353979229927063 0.061357609927654266
-0.00919404998421669 0.04622158780694008 0.061357609927654266
-0.00919401366263628 -0.04622160643339157 0.061357609927654266
-0.01803477108478546 0.043539777398109436 0.061357609927654266
3.640664303361518e-08 -0.0471271276473999 0.061357609927654266
-0.02618243731558323 0.03918477147817612 0.061357609927654266
0.00919408444315195 -0.04622158408164978 0.061357609927654266
-0.03332391753792763 0.033323898911476135 0.061357609927654266
0.018034810200333595 -0.04353976622223854 0.061357609927654266
-0.03918479010462761 0.026182420551776886 0.061357609927654266
0.026182465255260468 -0.039184749126434326 0.061357609927654266
-0.04353979602456093 0.018034759908914566 0.061357609927654266
0.04712711274623871 -4.794890262616036e-09 0.061357609927654266
0.046221572905778885 0.009194042533636093 0.061357609927654266
0.03332393243908882 -0.03332386910915375 0.061357609927654266
-0.04622160643339157 0.009194028563797474 0.061357609927654266
0.04353976994752884 0.018034765496850014 0.061357609927654266
0.03918479382991791 -0.026182377710938454 0.061357609927654266
-0.047127142548561096 -2.127482900959876e-08 0.061357609927654266
0.039184752851724625 0.026182426139712334 0.061357609927654266
0.04353979229927063 -0.018034713342785835 0.061357609927654266
-0.04622160643339157 -0.009194069541990757 0.061357609927654266
0.03332389518618584 0.033323898911476135 0.061357609927654266
0.04622158780694008 -0.00919397920370102 0.061357609927654266
-0.04353978484869003 -0.01803479716181755 0.061357609927654266
0.026182418689131737 0.03918477147817612 0.061357609927654266
-0.039184775203466415 -0.02618245594203472 0.061357609927654266
0.018034758046269417 0.043539777398109436 0.061357609927654266
-0.03332389146089554 -0.03332393243908882 0.061357609927654266
0.04561959207057953 -4.583338597541342e-09 0.061357609927654266
0.04474303126335144 0.008899940177798271 0.061357609927654266
0.04214701056480408 0.017457865178585052 0.061357609927654266
0.037931304425001144 0.02534489519894123 0.061357609927654266
0.03225792571902275 0.03225792944431305 0.061357609927654266
0.025344889611005783 0.03793132305145264 0.061357609927654266
0.017457861453294754 0.04214702174067497 0.061357609927654266
0.008899932727217674 0.04474303871393204 0.061357609927654266
-6.3172231890007424e-09 0.04561961442232132 0.061357609927654266
-0.008899950422346592 0.04474303871393204 0.061357609927654266
-0.01745786890387535 0.04214702174067497 0.061357609927654266
-0.025344904512166977 0.03793132305145264 0.061357609927654266
-0.03225795179605484 0.03225792944431305 0.061357609927654266
-0.03793133422732353 0.025344891473650932 0.061357609927654266
-0.04214704781770706 0.017457857728004456 0.061357609927654266
-0.04474304988980293 0.008899926207959652 0.061357609927654266
-0.045619625598192215 -2.0536111478008934e-08 0.061357609927654266
-0.04474304988980293 -0.008899969048798084 0.061357609927654266
-0.04214702919125557 -0.01745789125561714 0.061357609927654266
-0.03793132305145264 -0.025344928726553917 0.061357609927654266
-0.03225792944431305 -0.032257962971925735 0.061357609927654266
-0.025344880297780037 -0.03793134167790413 0.061357609927654266
-0.017457840964198112 -0.04214704781770706 0.061357609927654266
-0.008899912238121033 -0.044743046164512634 0.061357609927654266
3.5376867657532785e-08 -0.04561961069703102 0.061357609927654266
0.008899982087314129 -0.04474302753806114 0.061357609927654266
0.017457906156778336 -0.04214701056480408 0.061357609927654266
0.025344932451844215 -0.037931300699710846 0.061357609927654266
0.032257966697216034 -0.03225789591670036 0.061357609927654266
0.03793134540319443 -0.02534485049545765 0.061357609927654266
0.04214703291654587 -0.017457813024520874 0.061357609927654266
0.04474303498864174 -0.008899880573153496 0.061357609927654266
0.03567596152424812 3.6703649008984485e-09 -0.01736920140683651
0.03499045595526695 0.006960045546293259 -0.01736920140683651
0.03296028822660446 0.013652619905769825 -0.01736920140683651
0.02966346964240074 0.019820529967546463 -0.01736920140683651
0.02522670477628708 0.025226743891835213 -0.01736920140683651
0.01982049085199833 0.029663516208529472 -0.01736920140683651
0.013652579858899117 0.032960329204797745 -0.01736920140683651
0.006960007362067699 0.034990500658750534 -0.01736920140683651
-3.246966073788826e-08 0.035676009953022 -0.01736920140683651
-0.006960073485970497 0.034990500658750534 -0.01736920140683651
-0.013652639463543892 0.032960329204797745 -0.01736920140683651
-0.019820556044578552 0.029663516208529472 -0.01736920140683651
-0.025226779282093048 0.025226743891835213 -0.01736920140683651
-0.02966354787349701 0.019820528104901314 -0.01736920140683651
-0.03296036645770073 0.013652611523866653 -0.01736920140683651
-0.03499053418636322 0.0069600366987288 -0.01736920140683651
-0.03567603975534439 -8.805211670903645e-09 -0.01736920140683651
-0.03499053418636322 -0.006960054859519005 -0.01736920140683651
-0.032960351556539536 -0.013652624562382698 -0.01736920140683651
-0.029663534834980965 -0.01982053741812706 -0.01736920140683651
-0.025226758792996407 -0.025226755067706108 -0.01736920140683651
-0.01982053928077221 -0.02966351993381977 -0.01736920140683651
-0.0136526208370924 -0.032960329204797745 -0.01736920140683651
-0.006960045080631971 -0.03499049320816994 -0.01736920140683651
1.3653206343278157e-10 -0.03567599132657051 -0.01736920140683651
0.006960044149309397 -0.03499047830700874 -0.01736920140683651
0.013652618043124676 -0.032960303127765656 -0.01736920140683651
0.019820524379611015 -0.029663482680916786 -0.01736920140683651
0.025226736441254616 -0.02522670291364193 -0.01736920140683651
0.02966349571943283 -0.019820477813482285 -0.01736920140683651
0.03296031057834625 -0.013652562163770199 -0.01736920140683651
0.03499046713113785 -0.006959985010325909 -0.01736920140683651
0.034818653017282486 3.769407452836049e-09 -0.0202597975730896
0.03414962813258171 0.006792793981730938 -0.0202597975730896
0.03216823935508728 0.013324543833732605 -0.0202597975730896
0.02895064651966095 0.019344236701726913 -0.0202597975730896
0.024620501324534416 0.02462053671479225 -0.0202597975730896
0.01934419944882393 0.02895069308578968 -0.0202597975730896
0.013324502855539322 0.03216828405857086 -0.0202597975730896
0.006792755797505379 0.034149669110774994 -0.0202597975730896
-3.225922995397923e-08 0.034818705171346664 -0.0202597975730896
-0.0067928205244243145 0.034149669110774994 -0.0202597975730896
-0.013324563391506672 0.03216828405857086 -0.0202597975730896
-0.019344264641404152 0.02895069308578968 -0.0202597975730896
-0.024620575830340385 0.02462053671479225 -0.0202597975730896
-0.028950724750757217 0.019344232976436615 -0.0202597975730896
-0.032168321311473846 0.013324534520506859 -0.0202597975730896
-0.03414969891309738 0.006792785134166479 -0.0202597975730896
-0.03481873497366905 -8.40638669785676e-09 -0.0202597975730896
-0.03414969891309738 -0.006792801897972822 -0.0202597975730896
-0.03216830641031265 -0.013324547559022903 -0.0202597975730896
-0.028950713574886322 -0.01934424228966236 -0.0202597975730896
-0.024620551615953445 -0.024620547890663147 -0.0202597975730896
-0.01934424415230751 -0.02895069681107998 -0.0202597975730896
-0.01332454476505518 -0.03216828778386116 -0.0202597975730896
-0.006792793516069651 -0.0341496579349041 -0.0202597975730896
-4.366170203162767e-10 -0.03481868654489517 -0.0202597975730896
0.006792791653424501 -0.0341496467590332 -0.0202597975730896
0.013324541039764881 -0.03216825798153877 -0.0202597975730896
0.019344231113791466 -0.028950661420822144 -0.0202597975730896
0.024620529264211655 -0.024620499461889267 -0.0202597975730896
0.02895067073404789 -0.019344188272953033 -0.0202597975730896
0.03216826170682907 -0.013324487023055553 -0.0202597975730896
0.03414963558316231 -0.006792734377086163 -0.0202597975730896
0.026059448719024658 4.577180412468351e-09 -0.02105637453496456
0.025558726862072945 0.005083958152681589 -0.02105637453496456
0.024075793102383614 0.009972539730370045 -0.02105637453496456
0.021667633205652237 0.014477884396910667 -0.02105637453496456
0.01842680387198925 0.018426842987537384 -0.02105637453496456
0.014477843418717384 0.021667679771780968 -0.02105637453496456
0.00997250061482191 0.024075830355286598 -0.02105637453496456
0.005083919502794743 0.02555876597762108 -0.02105637453496456
-3.226346834139804e-08 0.02605949342250824 -0.02105637453496456
-0.005083984695374966 0.02555876597762108 -0.02105637453496456
-0.00997256301343441 0.024075830355286598 -0.02105637453496456
-0.014477908611297607 0.021667679771780968 -0.02105637453496456
-0.01842687651515007 0.018426842987537384 -0.02105637453496456
-0.021667705848813057 0.014477880671620369 -0.02105637453496456
-0.024075865745544434 0.009972535073757172 -0.02105637453496456
-0.025558797642588615 0.005083951633423567 -0.02105637453496456
-0.026059523224830627 -4.535590125698263e-09 -0.02105637453496456
-0.025558797642588615 -0.0050839614123106 -0.02105637453496456
-0.02407585270702839 -0.00997254066169262 -0.02105637453496456
-0.02166770026087761 -0.014477882534265518 -0.02105637453496456
-0.018426861613988876 -0.01842684857547283 -0.02105637453496456
-0.014477894641458988 -0.021667679771780968 -0.02105637453496456
-0.009972547180950642 -0.024075830355286598 -0.02105637453496456
-0.005083963740617037 -0.02555876411497593 -0.02105637453496456
-8.446364496705883e-09 -0.026059482246637344 -0.02105637453496456
0.005083946976810694 -0.025558749213814735 -0.02105637453496456
0.009972527623176575 -0.024075809866189957 -0.02105637453496456
0.014477869495749474 -0.02166765183210373 -0.02105637453496456
0.01842682808637619 -0.018426811322569847 -0.02105637453496456
0.02166765369474888 -0.014477841556072235 -0.02105637453496456
0.024075806140899658 -0.009972495026886463 -0.02105637453496456
0.02555873431265354 -0.005083910189568996 -0.02105637453496456
0.0077133034355938435 6.32182128867953e-09 -0.023585647344589233
0.007565096952021122 0.00150480295997113 -0.023585647344589233
0.007126163225620985 0.0029517714865505695 -0.023585647344589233
0.006413371302187443 0.004285304807126522 -0.023585647344589233
0.00545412115752697 0.005454156547784805 -0.023585647344589233
0.004285270348191261 0.006413409020751715 -0.023585647344589233
0.002951736794784665 0.007126196287572384 -0.023585647344589233
0.0015047682682052255 0.007565131410956383 -0.023585647344589233
-2.7787089962316713e-08 0.0077133397571742535 -0.023585647344589233
-0.0015048239147290587 0.007565131410956383 -0.023585647344589233
-0.00295179127715528 0.007126196287572384 -0.023585647344589233
-0.0042853266932070255 0.006413409020751715 -0.023585647344589233
-0.005454178899526596 0.005454156547784805 -0.023585647344589233
-0.006413430441170931 0.00428530341014266 -0.023585647344589233
-0.007126219104975462 0.0029517696239054203 -0.023585647344589233
-0.007565151900053024 0.0015048006316646934 -0.023585647344589233
-0.007713362108916044 3.6245417778246747e-09 -0.023585647344589233
-0.007565151900053024 -0.0015047938795760274 -0.023585647344589233
-0.007126216311007738 -0.002951761009171605 -0.023585647344589233
-0.006413428112864494 -0.004285294562578201 -0.023585647344589233
-0.005454174242913723 -0.005454147234559059 -0.023585647344589233
-0.0042853220365941525 -0.006413398310542107 -0.023585647344589233
-0.0029517870862036943 -0.007126185577362776 -0.023585647344589233
-0.001504817744717002 -0.007565117906779051 -0.023585647344589233
-2.073749882924858e-08 -0.007713325787335634 -0.023585647344589233
0.0015047764172777534 -0.0075651127845048904 -0.023585647344589233
0.0029517447110265493 -0.007126179523766041 -0.023585647344589233
0.004285277798771858 -0.00641339085996151 -0.023585647344589233
0.005454129073768854 -0.005454136524349451 -0.023585647344589233
0.006413378287106752 -0.004285283386707306 -0.023585647344589233
0.007126166019588709 -0.002951747737824917 -0.023585647344589233
0.007565097883343697 -0.0015047790948301554 -0.023585647344589233
0.022959906607866287 3.826836181275439e-09 -0.03213531896471977
0.022518731653690338 0.00447926577180624 -0.03213531896471977
0.02121218480169773 0.008786393329501152 -0.03213531896471977
0.019090456888079643 0.01275586523115635 -0.03213531896471977
0.016235096380114555 0.01623512990772724 -0.03213531896471977
0.012755826115608215 0.019090496003627777 -0.03213531896471977
0.008786356076598167 0.021212222054600716 -0.03213531896471977
0.00447922945022583 0.022518770769238472 -0.03213531896471977
-3.163559370022995e-08 0.022959940135478973 -0.03213531896471977
-0.004479292314499617 0.022518770769238472 -0.03213531896471977
-0.008786417543888092 0.021212222054600716 -0.03213531896471977
-0.012755890376865864 0.019090496003627777 -0.03213531896471977
-0.01623515971004963 0.01623512990772724 -0.03213531896471977
-0.019090525805950165 0.012755859643220901 -0.03213531896471977
-0.021212251856923103 0.008786388672888279 -0.03213531896471977
-0.022518806159496307 0.0044792587868869305 -0.03213531896471977
-0.02295997366309166 -4.202055592372744e-09 -0.03213531896471977
-0.022518806159496307 -0.004479268565773964 -0.03213531896471977
-0.021212246268987656 -0.008786393329501152 -0.03213531896471977
-0.019090520218014717 -0.012755864299833775 -0.03213531896471977
-0.016235150396823883 -0.01623513549566269 -0.03213531896471977
-0.01275587547570467 -0.019090497866272926 -0.03213531896471977
-0.008786403574049473 -0.021212220191955566 -0.03213531896471977
-0.004479274619370699 -0.02251877263188362 -0.03213531896471977
-1.0651341142420279e-08 -0.022959936410188675 -0.03213531896471977
0.004479252267628908 -0.022518759593367577 -0.03213531896471977
0.008786380290985107 -0.021212205290794373 -0.03213531896471977
0.01275584939867258 -0.019090475514531136 -0.03213531896471977
0.016235116869211197 -0.016235103830695152 -0.03213531896471977
0.019090471789240837 -0.01275582704693079 -0.03213531896471977
0.021212194114923477 -0.008786354213953018 -0.03213531896471977
0.022518740966916084 -0.004479223862290382 -0.03213531896471977
0.008906916715204716 4.824895150079556e-09 -0.03213531896471977
0.008735770359635353 0.0017376637551933527 -0.03213531896471977
0.008228914812207222 0.0034085449296981096 -0.03213531896471977
0.007405823562294245 0.004948439076542854 -0.03213531896471977
0.006298132240772247 0.006298164837062359 -0.03213531896471977
0.004948405083268881 0.007405860349535942 -0.03213531896471977
0.0034085121005773544 0.008228948339819908 -0.03213531896471977
0.0017376304604113102 0.008735804818570614 -0.03213531896471977
-2.8018522613137975e-08 0.008906950242817402 -0.03213531896471977
-0.0017376863397657871 0.008735804818570614 -0.03213531896471977
-0.0034085672814399004 0.008228948339819908 -0.03213531896471977
-0.004948461428284645 0.007405860349535942 -0.03213531896471977
-0.0062981899827718735 0.006298164837062359 -0.03213531896471977
-0.0074058836326003075 0.004948436748236418 -0.03213531896471977
-0.008228973485529423 0.003408543998375535 -0.03213531896471977
-0.008735830895602703 0.0017376611940562725 -0.03213531896471977
-0.008906972594559193 1.7102101956822935e-09 -0.03213531896471977
-0.008735830895602703 -0.001737658167257905 -0.03213531896471977
-0.008228972554206848 -0.0034085395745933056 -0.03213531896471977
-0.007405880838632584 -0.004948432091623545 -0.03213531896471977
-0.006298185326159 -0.00629816111177206 -0.03213531896471977
-0.004948455840349197 -0.007405852898955345 -0.03213531896471977
-0.0034085616935044527 -0.00822894275188446 -0.03213531896471977
-0.0017376792384311557 -0.008735796436667442 -0.03213531896471977
-1.9878028112430002e-08 -0.008906940929591656 -0.03213531896471977
0.001737639307975769 -0.008735793642699718 -0.03213531896471977
0.0034085216466337442 -0.008228938095271587 -0.03213531896471977
0.004948413465172052 -0.007405844051390886 -0.03213531896471977
0.0062981401570141315 -0.00629814900457859 -0.03213531896471977
0.007405831012874842 -0.0049484181217849255 -0.03213531896471977
0.008228917606174946 -0.003408523742109537 -0.03213531896471977
0.008735775016248226 -0.0017376405885443091 -0.03213531896471977
-0.015296154655516148 -0.036928221583366394 0.014044810086488724
-0.007797905243933201 -0.03920277580618858 0.014044810086488724
-0.007797935511916876 0.03920277580618858 0.014044810086488724
-0.015296179801225662 0.0369282029569149 0.014044810086488724
1.5741207448627392e-08 -0.039970800280570984 0.014044810086488724
-0.022206610068678856 0.03323450684547424 0.014044810086488724
0.007797932717949152 -0.03920276090502739 0.014044810086488724
-0.028263652697205544 0.028263617306947708 0.014044810086488724
0.01529618352651596 -0.036928191781044006 0.014044810086488724
-0.03323454037308693 0.022206582129001617 0.014044810086488724
0.022206608206033707 -0.03323449194431305 0.014044810086488724
-0.036928243935108185 0.015296154655516148 0.014044810086488724
0.039970774203538895 -1.8532758661038429e-09 0.014044810086488724
0.039202749729156494 0.007797913625836372 0.014044810086488724
0.0282636359333992 -0.02826358750462532 0.014044810086488724
-0.039202798157930374 0.007797903846949339 0.014044810086488724
0.03692818060517311 0.015296163968741894 0.014044810086488724
0.033234499394893646 -0.022206543013453484 0.014044810086488724
-0.03997083380818367 -1.583071806976477e-08 0.014044810086488724
0.03323446959257126 0.022206585854291916 0.014044810086488724
0.0369282029569149 -0.015296113677322865 0.014044810086488724
-0.039202798157930374 -0.007797935511916876 0.014044810086488724
0.028263600543141365 0.028263617306947708 0.014044810086488724
0.03920275717973709 -0.007797860074788332 0.014044810086488724
-0.03692822903394699 -0.01529618352651596 0.014044810086488724
0.022206567227840424 0.03323450684547424 0.014044810086488724
-0.033234529197216034 -0.022206610068678856 0.014044810086488724
0.015296144410967827 0.0369282029569149 0.014044810086488724
-0.028263626620173454 -0.028263647109270096 0.014044810086488724
0.007797892205417156 0.03920277580618858 0.014044810086488724
-0.022206589579582214 -0.03323452174663544 0.014044810086488724
-2.07901589277526e-08 0.03997080400586128 0.014044810086488724
-0.015058822929859161 -0.036355242133140564 0.012217896990478039
-0.0076769436709582806 0.03859451040625572 0.012217896990478039
0.039350591599941254 -3.8462237839098634e-09 0.012217896990478039
-0.007676913868635893 -0.03859452158212662 0.012217896990478039
-0.015058847144246101 0.03635522723197937 0.012217896990478039
1.5006021314434292e-08 -0.03935062512755394 0.012217896990478039
-0.021862056106328964 0.03271884471178055 0.012217896990478039
0.007676942273974419 -0.03859449177980423 0.012217896990478039
-0.027825118973851204 0.027825087308883667 0.012217896990478039
0.01505884900689125 -0.03635521978139877 0.012217896990478039
-0.03271887078881264 0.021862030029296875 0.012217896990478039
0.021862048655748367 -0.032718829810619354 0.012217896990478039
-0.036355264484882355 0.015058821067214012 0.012217896990478039
0.03859447315335274 0.0076769208535552025 0.012217896990478039
0.02782510221004486 -0.02782505564391613 0.012217896990478039
-0.03859453648328781 0.007676910143345594 0.012217896990478039
0.03635520488023758 0.015058827586472034 0.012217896990478039
0.03271884471178055 -0.02186199463903904 0.012217896990478039
-0.03935064747929573 -1.760678181028652e-08 0.012217896990478039
0.03271881490945816 0.021862033754587173 0.012217896990478039
0.03635521978139877 -0.015058780089020729 0.012217896990478039
-0.03859453648328781 -0.00767694553360343 0.012217896990478039
0.027825066819787025 0.027825087308883667 0.012217896990478039
0.03859449550509453 -0.0076768710277974606 0.012217896990478039
-0.03635524958372116 -0.0150588508695364 0.012217896990478039
0.021862013265490532 0.03271884471178055 0.012217896990478039
-0.03271886706352234 -0.021862057968974113 0.012217896990478039
0.015058808028697968 0.03635522723197937 0.012217896990478039
-0.027825096622109413 -0.027825113385915756 0.012217896990478039
0.00767690222710371 0.03859451040625572 0.012217896990478039
-0.021862037479877472 -0.03271886333823204 0.012217896990478039
-2.095859841233505e-08 0.03935062140226364 0.012217896990478039
-0.007824952714145184 -0.03933876380324364 0.014881318435072899
-0.015349232591688633 0.03705630078911781 0.0148813147097826
1.583989828191079e-08 -0.04010944440960884 0.0148813147097826
-0.022283639758825302 0.033349789679050446 0.0148813147097826
0.007824981585144997 -0.03933873772621155 0.0148813147097826
-0.028361685574054718 0.02836165763437748 0.0148813147097826
0.01534924004226923 -0.03705628216266632 0.0148813147097826
-0.033349812030792236 0.022283608093857765 0.0148813147097826
0.022283634170889854 -0.033349763602018356 0.0148813147097826
-0.0370563268661499 0.015349211171269417 0.0148813147097826
0.03933873400092125 0.00782496202737093 0.014881318435072899
0.028361668810248375 -0.028361622244119644 0.0148813147097826
-0.03933877497911453 0.007824950851500034 0.0148813147097826
0.037056270986795425 0.015349218621850014 0.014881318435072899
0.03334978595376015 -0.02228356897830963 0.0148813147097826
-0.04010947048664093 -1.5904577210790194e-08 0.0148813147097826
0.033349744975566864 0.022283615544438362 0.014881318435072899
0.037056293338537216 -0.01534916739910841 0.014881318435072899
-0.03933877497911453 -0.007824983447790146 0.0148813147097826
0.028361639007925987 0.02836165763437748 0.014881318435072899
0.03933873772621155 -0.007824906148016453 0.014881318435072899
-0.037056319415569305 -0.01534924004226923 0.0148813147097826
0.022283591330051422 0.033349789679050446 0.0148813147097826
-0.03334980085492134 -0.022283637896180153 0.0148813147097826
0.015349199064075947 0.03705630078911781 0.0148813147097826
-0.028361663222312927 -0.028361685574054718 0.0148813147097826
0.007824939675629139 0.03933875262737274 0.0148813147097826
-0.022283615544438362 -0.03334980458021164 0.0148813147097826
-2.0818216484030927e-08 0.04010944813489914 0.0148813147097826
-0.015349213033914566 -0.03705630823969841 0.014881318435072899
-0.007824983447790146 0.03933875262737274 0.014881318435072899
0.04010941833257675 -1.8786709965468162e-09 0.014881318435072899
-0.014408417977392673 -0.03478502109646797 0.010450052097439766
-0.007345370948314667 0.03692757338285446 0.010450052097439766
0.03765098750591278 -2.58236143579893e-09 0.010450052097439766
-0.007345341145992279 -0.03692758083343506 0.010450052097439766
-0.014408441260457039 0.03478500619530678 0.010450052097439766
1.2124054649120808e-08 -0.037651024758815765 0.010450052097439766
-0.02091781422495842 0.03130568191409111 0.010450052097439766
0.007345364894717932 -0.036927565932273865 0.010450050234794617
-0.026623327285051346 0.02662329189479351 0.010450052097439766
0.01440843753516674 -0.03478499874472618 0.010450052097439766
-0.0313057079911232 0.02091778628528118 0.010450052097439766
0.020917803049087524 -0.03130566328763962 0.010450052097439766
-0.034785039722919464 0.0144084133207798 0.010450052097439766
0.03692754730582237 0.007345348596572876 0.010450050234794617
0.026623303070664406 -0.026623262092471123 0.010450052097439766
-0.03692759573459625 0.007345337886363268 0.010450052097439766
0.03478498011827469 0.014408422634005547 0.010450050234794617
0.03130567818880081 -0.020917747169733047 0.010450052097439766
-0.03765105456113815 -1.5748582882224582e-08 0.010450052097439766
0.03130565211176872 0.02091778814792633 0.010450052097439766
0.03478500247001648 -0.014408374205231667 0.010450052097439766
-0.03692759573459625 -0.007345369551330805 0.010450052097439766
0.026623273268342018 0.02662329189479351 0.010450052097439766
0.03692755475640297 -0.007345296908169985 0.010450052097439766
-0.03478502854704857 -0.014408442191779613 0.010450052097439766
0.02091776393353939 0.03130568191409111 0.010450052097439766
-0.0313057005405426 -0.02091781236231327 0.010450052097439766
0.014408400282263756 0.03478500619530678 0.010450052097439766
-0.026623301208019257 -0.0266233179718256 0.010450052097439766
0.007345325313508511 0.03692757338285446 0.010450052097439766
-0.02091779187321663 -0.031305696815252304 0.010450052097439766
-2.22871268107383e-08 0.037651024758815765 0.010450052097439766
0.012277944013476372 0.012277981266379356 -0.022786462679505348
0.009646712802350521 0.014437377452850342 -0.022786462679505348
0.017030013725161552 -0.003387454664334655 -0.022786462679505348
0.017363646999001503 5.161989058422023e-09 -0.022786462679505348
-0.016041971743106842 -0.006644793786108494 -0.022786462679505348
-0.014437397941946983 -0.009646745398640633 -0.022786462679505348
0.006644760724157095 0.0160419512540102 -0.022786462679505348
-0.01227799616754055 -0.012277978472411633 -0.022786462679505348
0.003387454431504011 0.01703004725277424 -0.022786462679505348
-0.009646766819059849 -0.014437372796237469 -0.022786462679505348
-3.0131847239545095e-08 0.017363684251904488 -0.022786462679505348
-0.00664481008425355 -0.016041947528719902 -0.022786462679505348
-0.003387515200302005 0.01703004725277424 -0.022786462679505348
-0.003387501696124673 -0.017030036076903343 -0.022786462679505348
-0.006644819863140583 0.0160419512540102 -0.022786462679505348
-1.4262295344735776e-08 -0.017363671213388443 -0.022786462679505348
-0.009646774269640446 0.014437377452850342 -0.022786462679505348
0.003387472592294216 -0.017030028626322746 -0.022786462679505348
-0.01227800827473402 0.012277981266379356 -0.022786462679505348
0.006644779350608587 -0.016041934490203857 -0.022786462679505348
-0.014437401667237282 0.009646748192608356 -0.022786462679505348
0.009646730497479439 -0.014437356032431126 -0.022786462679505348
-0.016041981056332588 0.006644794251769781 -0.022786462679505348
0.017030009999871254 0.003387491451576352 -0.022786462679505348
0.012277960777282715 -0.012277953326702118 -0.022786462679505348
-0.01703007146716118 0.003387486096471548 -0.022786462679505348
0.016041915863752365 0.006644798442721367 -0.022786462679505348
0.014437353238463402 -0.009646717458963394 -0.022786462679505348
-0.017363710328936577 -9.099385134270221e-10 -0.022786462679505348
0.014437337405979633 0.009646750055253506 -0.022786462679505348
0.01604192703962326 -0.006644764449447393 -0.022786462679505348
-0.01703007146716118 -0.003387488191947341 -0.022786462679505348
