0.008063686080276966 0.0004948880523443222 -0.07126528769731522
0.035913098603487015 0.004547137767076492 0.02708396688103676
0.03457712382078171 0.004377412144094706 0.023608533665537834
0.03701384365558624 0.004687088076025248 0.03088136576116085
0.03723418712615967 0.002355580683797598 0.03088136576116085
0.0361274890601635 0.002285109832882881 0.02708396688103676
0.03478357568383217 0.0021997501607984304 0.02360953763127327
0.04235675558447838 0.005369962193071842 0.08808007836341858
0.04195675626397133 0.00532033434137702 0.08634387701749802
0.04244906082749367 0.005381873343139887 0.08849833905696869
0.04270216450095177 0.002710912609472871 0.08849833905696869
0.04260985925793648 0.0027059498243033886 0.08808007836341858
0.04220588877797127 0.0026811358984559774 0.08634387701749802
0.006253386847674847 0.0007893919828347862 -0.006124727427959442
0.006319110281765461 0.0007977114291861653 -0.007013394497334957
0.006042075343430042 0.0007619379903189838 -0.0059140948578715324
0.006077848374843597 0.0003817420802079141 -0.005913089960813522
0.006291656289249659 0.0003942212788388133 -0.006124727427959442
0.006356547120958567 0.0003983807982876897 -0.007013394497334957
0.036767687648534775 0.004656318575143814 0.03629762679338455
0.03728877753019333 0.004722819663584232 0.04163264483213425
0.03619696944952011 0.0045838626101613045 0.03268779069185257
0.03641235828399658 0.0023039679508656263 0.03268779069185257
0.0369880348443985 0.002340692328289151 0.03629762679338455
0.03751011937856674 0.002375431591644883 0.04163264483213425
0.008843212388455868 0.0011088590836152434 -0.0807584896683693
0.009347367100417614 0.0011729185935109854 -0.08139640837907791
0.008512933738529682 0.0010672621428966522 -0.07897742837667465
0.008564513176679611 0.0005265019717626274 -0.07897742837667465
0.00889645703136921 0.0005464685964398086 -0.0807579904794693
0.00940310675650835 0.0005780823994427919 -0.08139640837907791
0.02501784637570381 0.003166498150676489 0.009311613626778126
0.02230916917324066 0.0028240669053047895 0.006714818999171257
0.027489302679896355 0.003479151986539364 0.012029774487018585
0.027653073891997337 0.0017471463652327657 0.012030776590108871
0.02516772225499153 0.0015903232851997018 0.009312616661190987
0.022442171350121498 0.001417619059793651 0.006713815499097109
0.006865040864795446 0.0008687376393936574 -0.0007505930261686444
0.009735504165291786 0.001232012058608234 0.000566360424272716
0.004604997579008341 0.00058188964612782 -0.0015509959775954485
0.004541473463177681 0.00028610884328372777 -0.0015499929431825876
0.00690672779455781 0.0004359843151178211 -0.0007495899335481226
0.009794064797461033 0.0006186140235513449 0.0005653574480675161
0.04017512500286102 0.005091055762022734 0.06264673173427582
0.03984063118696213 0.0050483765080571175 0.058335788547992706
0.04050961509346962 0.0051337359473109245 0.06698475033044815
0.04075179621577263 0.0025848590303212404 0.06698574870824814
0.04041532054543495 0.002563023241236806 0.06264673173427582
0.040077850222587585 0.0025411872193217278 0.058336786925792694
0.006449724547564983 0.0008118549012579024 -0.025395579636096954
0.006577843334525824 0.0008276621229015291 -0.030812840908765793
0.006360706407576799 0.0008018714725039899 -0.020480822771787643
0.006398976314812899 0.00039921325515024364 -0.020480822771787643
0.006487994454801083 0.00040337321115657687 -0.025395579636096954
0.006617776583880186 0.00041086075361818075 -0.030811836943030357
0.04024757817387581 0.005102965515106916 0.0803217887878418
0.04052946716547012 0.005138698033988476 0.08494366705417633
0.039831697940826416 0.005049368366599083 0.07439399510622025
0.04006792604923248 0.0025431718677282333 0.07439499348402023
0.040486786514520645 0.002570962766185403 0.08032279461622238
0.04077065736055374 0.002589820884168148 0.08494467288255692
0.01758759468793869 0.0022136506158858538 -0.08423056453466415
0.020026296377182007 0.0025223351549357176 -0.08487951755523682
0.015608442015945911 0.0019635274074971676 -0.08356456458568573
0.015702735632658005 0.0009739515953697264 -0.08356456458568573
0.017693795263767242 0.0010990133741870522 -0.08422955125570297
0.02014639601111412 0.0012538518058136106 -0.08487951755523682
0.011067510582506657 0.001400745939463377 -0.0006422677543014288
0.009073471650481224 0.0011476452928036451 -0.001460724975913763
0.01313996221870184 0.0016617876244708896 0.0002574332756921649
0.013219364918768406 0.0008339983178302646 0.00025843604817055166
0.011133018881082535 0.0007029810803942382 -0.0006422677543014288
0.009127069264650345 0.0005759343621321023 -0.001461727893911302
0.0252113938331604 0.0031913120765239 0.011504195630550385
0.0228064376860857 0.0028865975327789783 0.008953538723289967
0.022942418232560158 0.0014493808848783374 0.008953538723289967
0.02536226436495781 0.0016032265266403556 0.011504195630550385
0.007532909512519836 0.0009449664503335953 -0.06115994229912758
0.007299133576452732 0.000916680321097374 -0.05543575808405876
0.007343227509409189 0.00045329058775678277 -0.055436763912439346
0.007578665856271982 0.0004666018357966095 -0.06115994229912758
0.03777017071843147 0.004783365409821272 0.03494957834482193
0.03830316662788391 0.004850858822464943 0.039354804903268814
0.038531456142663956 0.0024389552418142557 0.039354804903268814
0.03799448534846306 0.00240421574562788 0.03494957834482193
0.04230514168739319 0.0053640068508684635 0.0888885036110878
0.04194782301783562 0.005318349692970514 0.08917135745286942
0.04219794645905495 0.002679151017218828 0.08917236328125
0.0425572507083416 0.002701979596167803 0.08888950943946838
0.005616954527795315 0.0007086939294822514 -0.00579975126311183
0.005232598632574081 0.000659609620925039 -0.0053624375723302364
0.005264212843030691 0.00032932983594946563 -0.005363442003726959
0.0056502316147089005 0.00035345606738701463 -0.00579975126311183
0.037816815078258514 0.004772452637553215 -0.08822179585695267
0.036629725247621536 0.00462257768958807 -0.08974173665046692
0.034857023507356644 0.004397267941385508 -0.08781357854604721
0.035065460950136185 0.002194792265072465 -0.08781357854604721
0.03804212436079979 0.002383377170190215 -0.08822179585695267
0.03599150851368904 0.002253353362902999 -0.08974173665046692
0.03533543273806572 0.004474681802093983 0.029077952727675438
0.03420889005064964 0.004331754054874182 0.025670725852251053
0.034413352608680725 0.002176921581849456 0.025670725852251053
0.03554585576057434 0.0022483852226287127 0.029077952727675438
0.0083681745454669 0.0010489593259990215 -0.0776524618268013
0.008289973251521587 0.0010389761300757527 -0.07603559643030167
0.008339888416230679 0.0005115269450470805 -0.07603559643030167
0.00841809157282114 0.0005165186594240367 -0.0776524618268013
0.0296163447201252 0.003749125637114048 0.01480410248041153
0.03146845102310181 0.003983368631452322 0.01763058826327324
0.031656038016080856 0.002000247361138463 0.01763058826327324
0.029794013127684593 0.0018831262132152915 0.01480410248041153
0.006298311520367861 0.000794383988250047 -0.016083624213933945
0.0062750172801315784 0.0007918880437500775 -0.01228421926498413
0.006312455050647259 0.0003950533864554018 -0.01228421926498413
0.006335749290883541 0.0003958853776566684 -0.01608462817966938
0.04087189584970474 0.0051793926395475864 0.0715915784239769
0.04124708101153374 0.005228028167039156 0.07656249403953552
0.041492242366075516 0.0026334940921515226 0.0765635073184967
0.04111507162451744 0.0026086801663041115 0.0715915784239769
0.039336416870355606 0.004985845182090998 0.06782125681638718
0.03873393312096596 0.004908426199108362 0.06002084165811539
0.03896420821547508 0.0024707159027457237 0.06002184748649597
0.0395696684718132 0.0025104177184402943 0.06782125681638718
0.0149235799908638 0.001888089464046061 0.001131055993027985
0.01687891036272049 0.0021362281404435635 0.0023547294549643993
0.01697915606200695 0.0010722107253968716 0.0023557322565466166
0.015012910589575768 0.0009481415036134422 0.0011320587946102023
0.01216022577136755 0.0015287055866792798 -0.08273908495903015
0.01114997174590826 0.0014002835378050804 -0.08231845498085022
0.01121760718524456 0.0006922497414052486 -0.08231845498085022
0.0122338542714715 0.0007564607076346874 -0.08273808658123016
0.020072946324944496 0.002540196990594268 0.006608499214053154
0.01692655123770237 0.0021421832498162985 0.004422937985509634
0.01702779345214367 0.0010751885129138827 0.004422937985509634
0.02019403874874115 0.0012756839860230684 0.006608499214053154
0.038729969412088394 0.004906441550701857 0.04416324198246002
0.03910514712333679 0.004954084288328886 0.04908100143074989
0.039337407797575 0.0024915600661188364 0.04908100143074989
0.038962222635746 0.0024677386973053217 0.04416324198246002
0.0071194348856806755 0.0008942178683355451 -0.0492602176964283
0.006952215917408466 0.0008742512436583638 -0.04292219132184982
0.006993812508881092 0.0004324916226323694 -0.04292219132184982
0.0071618640795350075 0.00044164317660033703 -0.049261223524808884
0.04140489548444748 0.005248870700597763 0.08926663547754288
0.040926482528448105 0.005189317744225264 0.08884939551353455
0.04117065668106079 0.0026156275998800993 0.08885039389133453
0.04165104776620865 0.0026454043108969927 0.08926764130592346
0.02867341786623001 0.003615135792642832 -0.08695875853300095
0.025902211666107178 0.0032657571136951447 -0.08640509843826294
0.0260570477694273 0.0016270519699901342 -0.08640609681606293
0.028845131397247314 0.0018017413094639778 -0.08695875853300095
0.006141469348222017 0.0007764303009025753 -0.0041818940080702305
0.006520624738186598 0.0008240726310759783 -0.0028850007802248
0.006559334695339203 0.00041315570706501603 -0.0028850007802248
0.006178193725645542 0.00038933451287448406 -0.004182896576821804
0.032846108078956604 0.004159050527960062 0.022668711841106415
0.03304164484143257 0.002089577028527856 0.022668711841106415
0.008159358985722065 0.0010231691412627697 -0.07377080619335175
0.0082084434106946 0.0005040394025854766 -0.07377179712057114
0.033108144998550415 0.004190812353044748 0.020511234179139137
0.033305663615465164 0.002105457941070199 0.020512238144874573
0.04162226989865303 0.005276662763208151 0.08199179917573929
0.04187040403485298 0.002657314296811819 0.08199280500411987
0.006304135080426931 0.0007960475631989539 -0.00916384905576706
0.006341571919620037 0.0003975489817094058 -0.00916384905576706
0.03799845650792122 0.004814134445041418 0.0504160076379776
0.038224756717681885 0.002422081306576729 0.0504160076379776
0.010010423138737679 0.001256112358532846 -0.08188950270414352
0.010070321150124073 0.0006205112440511584 -0.08188950270414352
0.019468480721116066 0.002463770331814885 0.004306588787585497
0.01958460919559002 0.0012369744945317507 0.004306588787585497
0.013285866007208824 0.001681638415902853 0.0023487114813178778
0.013364278711378574 0.0008439235389232635 0.0023487114813178778
0.006758373696357012 0.0008492927299812436 -0.03671455755829811
0.006799138151109219 0.00042084429878741503 -0.036713555455207825
0.039479341357946396 0.0050017270259559155 0.05380919203162193
0.03971458226442337 0.0025173660833388567 0.053810201585292816
0.04076569154858589 0.005169467069208622 0.08759762346744537
0.04100886359810829 0.002605702029541135 0.08759762346744537
0.007527072913944721 0.0009521120227873325 -0.002094628056511283
0.007572731003165245 0.0004776715359184891 -0.002093625022098422
0.022907676175236702 0.0028875942807644606 -0.08565985411405563
0.023044651374220848 0.0014374741585925221 -0.08565885573625565
0.02541288174688816 8.193305802706163e-06 0.01150519959628582
0.027599476277828217 9.185759154206607e-06 0.014210320077836514
0.02298906445503235 6.208400009199977e-06 0.008954541757702827
0.0229434072971344 -0.0014369639102369547 0.008954541757702827
0.0253632552921772 -0.0015868396731093526 0.01150519959628582
0.027544887736439705 -0.0017228194046765566 0.014210320077836514
0.0075936405919492245 -1.4258769624575507e-05 -0.06115994229912758
0.007816600613296032 -1.5090527085703798e-05 -0.06584902107715607
0.007357370108366013 -1.2595060070452746e-05 -0.05543575808405876
0.007343227509409189 -0.0004784808843396604 -0.05543575808405876
0.007578665856271982 -0.0004951193695887923 -0.06115994229912758
0.007801624946296215 -0.0005100941052660346 -0.06584902107715607
0.038070905953645706 1.613281710888259e-05 0.034950580447912216
0.03730763867497444 1.514047835371457e-05 0.030882371589541435
0.03860689327120781 1.7125270460383035e-05 0.039354804903268814
0.038532450795173645 -0.0024047044571489096 0.039356812834739685
0.03799547627568245 -0.002371949842199683 0.034950580447912216
0.03723518177866936 -0.002325299894437194 0.030883371829986572
0.042641621083021164 3.1018920708447695e-05 0.08888950943946838
0.04278752580285072 3.1018920708447695e-05 0.08849933743476868
0.04228132218122482 3.101880429312587e-05 0.08917236328125
0.042198941111564636 -0.002617113059386611 0.08917436748743057
0.04255824536085129 -0.002639941405504942 0.08889050781726837
0.042703159153461456 -0.0026488746516406536 0.08850034326314926
0.005661879200488329 -2.6136726773984265e-06 -0.00579975126311183
0.00609032716602087 -1.7817205844039563e-06 -0.005913089960813522
0.0052741956897079945 -2.6136726773984265e-06 -0.005363442003726959
0.005264212843030691 -0.0003345571749377996 -0.005363442003726959
0.0056502316147089005 -0.0003586833772715181 -0.00579975126311183
0.006077848374843597 -0.00038530543679371476 -0.005913089960813522
0.03811954706907272 -1.6616173525108024e-05 -0.08822079747915268
0.036921534687280655 -1.6616173525108024e-05 -0.08974173665046692
0.03513593226671219 -1.7608743291930296e-05 -0.08781357854604721
0.035066451877355576 -0.0022300095297396183 -0.08781257271766663
0.03804311901330948 -0.002416609786450863 -0.0882197842001915
0.03599250689148903 -0.0022885703947395086 -0.08973974734544754
0.035616327077150345 1.414802682120353e-05 0.029077952727675438
0.03648481145501137 1.5140364666876849e-05 0.032688796520233154
0.03448183834552765 1.3155571650713682e-05 0.02567172795534134
0.034414347261190414 -0.0021506103221327066 0.025672730058431625
0.03554684668779373 -0.002220089314505458 0.029078956693410873
0.036413345485925674 -0.0022736871615052223 0.032688796520233154
0.00843473058193922 -1.758599501044955e-05 -0.07765145599842072
0.008581151254475117 -1.758599501044955e-05 -0.07897742837667465
0.008357360027730465 -1.758609141688794e-05 -0.07603459805250168
0.00834072194993496 -0.0005466989823617041 -0.07603459805250168
0.00841809157282114 -0.0005516905803233385 -0.07765145599842072
0.008565344847738743 -0.0005616737762466073 -0.07897742837667465
0.029852574691176414 9.185759154206607e-06 0.01480410248041153
0.027708658948540688 8.193305802706163e-06 0.012030776590108871
0.03171956166625023 1.0178212505707052e-05 0.017631592229008675
0.031657032668590546 -0.0019798907451331615 0.017631592229008675
0.029794013127684593 -0.0018647543620318174 0.01480510551482439
0.027654068544507027 -0.0017307598609477282 0.012031779624521732
0.006348227616399527 -4.27718850914971e-06 -0.016083624213933945
0.006411455105990171 -5.108946425025351e-06 -0.020480822771787643
0.006325766444206238 -3.445333504714654e-06 -0.01228421926498413
0.00631328672170639 -0.00040194400935433805 -0.01228421926498413
0.006335749290883541 -0.00040443966281600296 -0.016083624213933945
0.006398976314812899 -0.0004094311152584851 -0.020480822771787643
0.04119745269417763 2.7049340133089572e-05 0.07159258425235748
0.040832195430994034 2.5064433430088684e-05 0.06698574870824814
0.0415746234357357 2.8041678888257593e-05 0.0765635073184967
0.041493237018585205 -0.002577410312369466 0.07656451314687729
0.04111606255173683 -0.0025545810349285603 0.07159359008073807
0.04075279086828232 -0.0025347296614199877 0.06698676198720932
0.03964907303452492 2.506431883375626e-05 0.06782227009534836
0.04014832526445389 2.7049223717767745e-05 0.07439599931240082
0.03904261812567711 2.3079526727087796e-05 0.06002184748649597
0.03896519914269447 -0.002424556063488126 0.06002284958958626
0.039570655673742294 -0.002460288582369685 0.06782326847314835
0.04006892070174217 -0.002489072736352682 0.07439599931240082
0.012257825583219528 -1.835276088968385e-05 -0.08273908495903015
0.015733502805233 -1.9593995602917857e-05 -0.08356456458568573
0.011239866726100445 -1.835276088968385e-05 -0.08231845498085022
0.011218463070690632 -0.0007289550267159939 -0.08231845498085022
0.012234711088240147 -0.0007931661093607545 -0.08273708075284958
0.015702735632658005 -0.0010131396120414138 -0.08356456458568573
0.015042686834931374 3.2311554605257697e-06 0.0011320587946102023
0.013245171867311 2.2385866031982005e-06 0.00025843604817055166
0.017012905329465866 4.223493306199089e-06 0.0023557322565466166
0.01697915606200695 -0.0010637636296451092 0.0023557322565466166
0.015012910589575768 -0.0009416796383447945 0.0011330615961924195
0.013219364918768406 -0.0008295210427604616 0.00025943908258341253
0.020233741030097008 5.215946657699533e-06 0.006608499214053154
0.017061538994312286 4.223493306199089e-06 0.004421934951096773
0.01702779345214367 -0.0010667413007467985 0.004422937985509634
0.02019403874874115 -0.0012652521254494786 0.006608499214053154
0.03903865069150925 1.91100625670515e-05 0.04416424408555031
0.03941681236028671 2.0102399503230117e-05 0.04908100143074989
0.039338402450084686 -0.002451354870572686 0.049083009362220764
0.038962222635746 -0.0024295183829963207 0.044165242463350296
0.007176006678491831 -1.1763399015762843e-05 -0.0492602176964283
0.00700795603916049 -1.009978586807847e-05 -0.04292219132184982
0.006993812508881092 -0.0004526911361608654 -0.04292219132184982
0.0071618640795350075 -0.0004651700146496296 -0.0492602176964283
0.041733432561159134 3.101880429312587e-05 0.08926764130592346
0.04125204309821129 3.1018920708447695e-05 0.08885039389133453
0.04117164760828018 -0.0025535894092172384 0.08885139226913452
0.04165204241871834 -0.0025833663530647755 0.08926865458488464
0.028902698308229446 -1.8601311239763163e-05 -0.08695774525403976
0.02610866166651249 -1.8601311239763163e-05 -0.08640509843826294
0.02605804242193699 -0.0016642543487250805 -0.08640509843826294
0.028846124187111855 -0.001838943688198924 -0.08695774525403976
0.00619109719991684 2.536803265229537e-07 -0.004182896576821804
0.006572237703949213 2.5356473543070024e-07 -0.0028850007802248
0.006560327019542456 -0.000412648543715477 -0.0028850007802248
0.0061791869811713696 -0.0003888271749019623 -0.004182896576821804
0.033108144998550415 1.216311920870794e-05 0.02266971580684185
0.03149524703621864 1.1170665857207496e-05 0.019854264333844185
0.03143271431326866 -0.0019650026224553585 0.019854264333844185
0.03304263576865196 -0.0020652504172176123 0.02266971580684185
0.008225081488490105 -1.675423663982656e-05 -0.07377179712057114
0.00807949248701334 -1.675423663982656e-05 -0.07126528769731522
0.008064516820013523 -0.0005283965729176998 -0.07126528769731522
0.0082084434106946 -0.0005375478067435324 -0.07377080619335175
0.033371176570653915 1.1170665857207496e-05 0.020512238144874573
0.03485206142067909 1.3155687156540807e-05 0.023610537871718407
0.03478456661105156 -0.0021734389010816813 0.023611541837453842
0.033306654542684555 -0.0020831164438277483 0.020513242110610008
0.0063540516421198845 -2.6134782729059225e-06 -0.00916384905576706
0.006370690651237965 -2.6135758162126876e-06 -0.007013394497334957
0.006357379723340273 -0.00040360804996453226 -0.007012389600276947
0.006341571919620037 -0.0004027760587632656 -0.00916384905576706
0.04195377975702286 2.903401582443621e-05 0.08199280500411987
0.04229025915265083 3.1019033485790715e-05 0.08634486794471741
0.04220687970519066 -0.0026190977077931166 0.0863458663225174
0.04187139496207237 -0.0025992467999458313 0.08199381083250046
0.03829919546842575 2.0102399503230117e-05 0.050417013466358185
0.0375855527818203 1.811772381188348e-05 0.04163264483213425
0.03751111403107643 -0.0023391959257423878 0.04163364693522453
0.038225747644901276 -0.0023818761110305786 0.05041801929473877
0.010090288706123829 -1.8417753381072544e-05 -0.08188950270414352
0.0094222417101264 -1.8417847968521528e-05 -0.08139640837907791
0.00940310675650835 -0.0006149178370833397 -0.08139640837907791
0.010070321150124073 -0.0006573466234840453 -0.08188950270414352
0.019623318687081337 5.216062163526658e-06 0.004306588787585497
0.022486835718154907 6.208515515027102e-06 0.006714818999171257
0.022442171350121498 -0.0014052020851522684 0.006714818999171257
0.01958460919559002 -0.0012265424011275172 0.004307591821998358
0.013391077518463135 3.23104018207232e-06 0.0023497140500694513
0.009812923148274422 2.2385866031982005e-06 0.000566360424272716
0.009795057587325573 -0.0006141369813121855 0.000566360424272716
0.01336527056992054 -0.0008374614990316331 0.0023497140500694513
0.0068132816813886166 -9.268027497455478e-06 -0.036713555455207825
0.006630255375057459 -7.604413895023754e-06 -0.030811836943030357
0.006617776583880186 -0.00042606957140378654 -0.030811836943030357
0.006799138151109219 -0.000439380353782326 -0.036713555455207825
0.03979397937655449 2.208718979090918e-05 0.053810201585292816
0.04015824943780899 2.3079643142409623e-05 0.058336786925792694
0.040078844875097275 -0.0024950276128947735 0.05833779275417328
0.03971556946635246 -0.0024731913581490517 0.0538112036883831
0.04109124839305878 3.1018920708447695e-05 0.08759863674640656
0.04085204750299454 3.002646735694725e-05 0.08494467288255692
0.040771644562482834 -0.0025297682732343674 0.08494467288255692
0.04100986197590828 -0.0025436640717089176 0.08759863674640656
0.007587618660181761 1.2461334790714318e-06 -0.002093625022098422
0.009144934825599194 1.2461334790714318e-06 -0.001461727893911302
0.009127069264650345 -0.0005734421429224312 -0.001461728010326624
0.007572731003165245 -0.0004751794331241399 -0.002093625022098422
0.02309229224920273 -1.860142765508499e-05 -0.08565885573625565
0.02018708921968937 -1.9593995602917857e-05 -0.08487850427627563
0.02014639601111412 -0.0012930396478623152 -0.08487850427627563
0.02304564230144024 -0.0014746768865734339 -0.08565885573625565
0.029643144458532333 1.0178212505707052e-05 0.017013736069202423
0.029584582895040512 -0.0018498663557693362 0.01701473817229271
0.03619895130395889 1.414802682120353e-05 0.02708396688103676
0.0361274890601635 -0.0022568136919289827 0.027084968984127045
0.00796135701239109 -1.5922381862765178e-05 -0.06892123818397522
0.007945550605654716 -0.0005200772429816425 -0.06892123818397522
0.042694225907325745 3.1018920708447695e-05 0.08808108419179916
0.04261085018515587 -0.0026439118664711714 0.08808208256959915
0.006304135080426931 -2.6135758162126876e-06 -0.006124727427959442
0.006291656289249659 -0.0003994483849965036 -0.006124727427959442
0.03706049174070358 1.613281710888259e-05 0.03629863262176514
0.03698902949690819 -0.0023084264248609543 0.03629963472485542
0.008914758451282978 -1.8417847968521528e-05 -0.0807584896683693
0.00889645703136921 -0.0005833041504956782 -0.0807579904794693
0.02521735057234764 7.200852451205719e-06 0.009312616661190987
0.02516772225499153 -0.0015759214293211699 0.009312616661190987
0.006919631268829107 1.2461334790714318e-06 -0.0007495900499634445
0.004641721490770578 2.5356473543070024e-07 -0.0015530020464211702
0.004541473463177681 -0.0002856017672456801 -0.0015499929431825876
0.00690672779455781 -0.0004334922705311328 -0.0007495900499634445
0.04049472510814667 2.407198007858824e-05 0.06264673173427582
0.04041631519794464 -0.002514878986403346 0.0626477301120758
0.006502136588096619 -6.772656433895463e-06 -0.02539657987654209
0.006488825660198927 -0.00041691839578561485 -0.025395579636096954
0.04056817293167114 2.9034130420768633e-05 0.08032279461622238
0.040487781167030334 -0.002512894570827484 0.08032379299402237
0.01772853545844555 -1.9593995602917857e-05 -0.08422955125570297
0.017693795263767242 -0.0011382013326510787 -0.08422955125570297
0.01115485467016697 2.238702336399001e-06 -0.0006422679289244115
0.011133018881082535 -0.000698503979947418 -0.0006422679289244115
0.020074931904673576 -0.002529765013605356 0.006610504817217588
0.02280743047595024 -0.0028741806745529175 0.008954541757702827
0.01692754589021206 -0.0021337359212338924 0.004423941019922495
0.016759805381298065 -0.003191797761246562 0.004423941019922495
0.019876420497894287 -0.0037843522150069475 0.006609502248466015
0.022582119330763817 -0.004299487452954054 0.008955545723438263
0.038731954991817474 -0.004868221469223499 0.04416624829173088
0.0383041650056839 -0.004816608969122171 0.039356812834739685
0.03910713642835617 -0.004913879092782736 0.049083009362220764
0.03872004151344299 -0.007355560082942247 0.04908400774002075
0.03834882751107216 -0.007287073880434036 0.04416725039482117
0.037925995886325836 -0.0072096544317901134 0.03935781121253967
0.0071194348856806755 -0.0009177447063848376 -0.0492602176964283
0.007299966178834438 -0.0009418706758879125 -0.05543575808405876
0.006952215917408466 -0.0008944505825638771 -0.04292118921875954
0.006883164402097464 -0.001332050422206521 -0.04292118921875954
0.007048720493912697 -0.0013661595294252038 -0.04925921931862831
0.007226755376905203 -0.0014019326772540808 -0.05543575808405876
0.04140688106417656 -0.0051868329755961895 0.08926964551210403
0.0419498085975647 -0.005256311967968941 0.08917436748743057
0.040928468108177185 -0.00512728001922369 0.0888523980975151
0.040525492280721664 -0.0076811183243989944 0.08885440230369568
0.04099695757031441 -0.007771441712975502 0.08927065134048462
0.041534923017024994 -0.007873674854636192 0.08917635679244995
0.0286744125187397 -0.0036533307284116745 -0.08695674687623978
0.034859009087085724 -0.004432485438883305 -0.08781156688928604
0.02590320259332657 -0.0033029597252607346 -0.08640408515930176
0.025645140558481216 -0.004928761161863804 -0.08640308678150177
0.028390541672706604 -0.0054518370889127254 -0.08695574104785919
0.034513600170612335 -0.006619080435484648 -0.08781056851148605
0.006142462138086557 -0.0007759229629300535 -0.0041818940080702305
0.005232598632574081 -0.0006648367852903903 -0.0053624375723302364
0.006521617528051138 -0.0008235655841417611 -0.0028850007802248
0.006457101553678513 -0.0012315049534663558 -0.002883997978642583
0.006080923601984978 -0.00116103352047503 -0.0041818940080702305
0.005181018263101578 -0.0009934527333825827 -0.0053624375723302364
0.03284710273146629 -0.004134723916649818 0.022670717909932137
0.034210871905088425 -0.0043054427951574326 0.02567373402416706
0.031247109174728394 -0.003933235537260771 0.01985526643693447
0.03093842603266239 -0.00588658032938838 0.019857270643115044
0.03252353146672249 -0.006187323480844498 0.022671720013022423
0.03387241065502167 -0.0064434027299284935 0.025674737989902496
0.008159358985722065 -0.0010566774290055037 -0.07377080619335175
0.008290805853903294 -0.0010741482255980372 -0.07603459805250168
0.00801626592874527 -0.0010383749613538384 -0.07126528769731522
0.007936399430036545 -0.0015441937139257789 -0.07126528769731522
0.008077829144895077 -0.0015716474736109376 -0.07376980036497116
0.008207610808312893 -0.0015974375419318676 -0.07603459805250168
0.033109139651060104 -0.004168470855802298 0.020513242110610008
0.03147043287754059 -0.003963012248277664 0.01763259433209896
0.03457910940051079 -0.004353085998445749 0.023611541837453842
0.03423667699098587 -0.00651387358084321 0.023612545803189278
0.03278159722685814 -0.006237943656742573 0.020514244213700294
0.031158773228526115 -0.005930252373218536 0.017633596435189247
0.006304135080426931 -0.0008012747275643051 -0.00916384905576706
0.006275849416851997 -0.0007987788412719965 -0.01228421926498413
0.006319941952824593 -0.0008029386517591774 -0.007013394497334957
0.006257546599954367 -0.0011989414924755692 -0.007012389600276947
0.006242571398615837 -0.0011964455479755998 -0.009162847883999348
0.006213454529643059 -0.001192285679280758 -0.012283215299248695
0.04162425175309181 -0.005218594800680876 0.08199481666088104
0.04124906659126282 -0.0051719448529183865 0.07656551152467728
0.04195874184370041 -0.005258297082036734 0.0863458663225174
0.041543856263160706 -0.007876652292907238 0.08634787052869797
0.04121333733201027 -0.007816106081008911 0.08199481666088104
0.040841128677129745 -0.00774662708863616 0.07656751573085785
0.03799944370985031 -0.004773929715156555 0.050419021397829056
0.038735922425985336 -0.004862267058342695 0.060023851692676544
0.03729076310992241 -0.004686584230512381 0.04163464531302452
0.036921534687280655 -0.007016106508672237 0.041635651141405106
0.03762426599860191 -0.0071461317129433155 0.050419021397829056
0.03835279494524002 -0.007281119003891945 0.06002486124634743
0.010010423138737679 -0.001292947679758072 -0.08188900351524353
0.011150827631354332 -0.0014369889395311475 -0.08231795579195023
0.009347367100417614 -0.0012097540311515331 -0.08139590919017792
0.009255020879209042 -0.0017987664323300123 -0.08139590919017792
0.009910589084029198 -0.0019243890419602394 -0.08188900351524353
0.011039528995752335 -0.0021398859098553658 -0.08231795579195023
0.019468480721116066 -0.002453337889164686 0.004307591821998358
0.01687990315258503 -0.0021277805790305138 0.002356735523790121
0.0223101619631052 -0.0028106572572141886 0.006715821102261543
0.02208981290459633 -0.004206187091767788 0.0067168246023356915
0.019275924190878868 -0.0036721937358379364 0.004308594856411219
0.016712160781025887 -0.0031838570721447468 0.002356735523790121
0.013286859728395939 -0.0016751763178035617 0.0023497140500694513
0.009736496023833752 -0.0012275349581614137 0.000566360424272716
0.009640218690037727 -0.0018359697423875332 0.0005673635168932378
0.013154850341379642 -0.002505943411961198 0.0023497140500694513
0.006759206298738718 -0.0008678288431838155 -0.036713555455207825
0.006577843334525824 -0.0008428707951679826 -0.030811836943030357
0.006512951571494341 -0.001256344374269247 -0.030811836943030357
0.006691819056868553 -0.0012929495424032211 -0.036713555455207825
0.039481326937675476 -0.004959536716341972 0.05381220579147339
0.03984261676669121 -0.005002216901630163 0.058338794857263565
0.0394485741853714 -0.007490548305213451 0.058338794857263565
0.03909125551581383 -0.007425039075314999 0.053813207894563675
0.04076768085360527 -0.005107428412884474 0.08760063350200653
0.040531449019908905 -0.005078644957393408 0.08494666963815689
0.040131449699401855 -0.007607670035213232 0.08494768291711807
0.04036569222807884 -0.007651343010365963 0.08760164678096771
0.02290867082774639 -0.002924797125160694 -0.08565784245729446
0.020027289167046547 -0.002561522414907813 -0.08487850427627563
0.019827784970402718 -0.0038190872874110937 -0.08487750589847565
0.022682368755340576 -0.004363005980849266 -0.08565683662891388
0.007527072913944721 -0.0009496199199929833 -0.002093625022098422
0.009073471650481224 -0.0011451528407633305 -0.0014607250923290849
0.008984141051769257 -0.001712893252260983 -0.0014607250923290849
0.007453624624758959 -0.0014210825320333242 -0.002093625022098422
0.029408901929855347 -0.00370296323671937 0.01701473817229271
0.027382107451558113 -0.003447876777499914 0.014210320077836514
0.02711113914847374 -0.005159038584679365 0.0142113221809268
0.02911907620728016 -0.005541171878576279 0.017015740275382996
0.03591508790850639 -0.004518842324614525 0.02708597294986248
0.037014834582805634 -0.0046568070538342 0.030884375795722008
0.03664957731962204 -0.006969456095248461 0.030884375795722008
0.035559751093387604 -0.006763997953385115 0.027086975052952766
0.007898129522800446 -0.0010225683217868209 -0.06892023980617523
0.007755868602544069 -0.0010034338338300586 -0.06584902107715607
0.007678498979657888 -0.0014917819062247872 -0.06584802269935608
0.007819927297532558 -0.0015208994736894965 -0.06892023980617523
0.04235874116420746 -0.005307924468070269 0.08808308839797974
0.042451050132513046 -0.005319835152477026 0.08850134909152985
0.042032189667224884 -0.007968960329890251 0.08850234001874924
0.041941870003938675 -0.007951093837618828 0.08808408677577972
0.006254219450056553 -0.0007946192636154592 -0.006123722996562719
0.006042075343430042 -0.0007671653293073177 -0.005913089960813522
0.0059821754693984985 -0.001146529451943934 -0.005913089960813522
0.006192655302584171 -0.001186462352052331 -0.006124727427959442
0.03676967695355415 -0.004624052904546261 0.03629963472485542
0.0361979641020298 -0.004553582053631544 0.03268979489803314
0.03584064543247223 -0.0068146176636219025 0.03269180282950401
0.03640739247202873 -0.006920821499079466 0.036301638931035995
0.008844044059515 -0.0011456947540864348 -0.0807579904794693
0.008513763546943665 -0.0011040978133678436 -0.07897642999887466
0.00842890702188015 -0.0016406982904300094 -0.07897642999887466
0.008755859918892384 -0.0017039255471900105 -0.0807579904794693
0.025018837302923203 -0.003152095712721348 0.009313619695603848
0.027490295469760895 -0.003462764900177717 0.012031779624521732
0.02721932902932167 -0.0051808743737638 0.012032783590257168
0.024771694093942642 -0.004716359544545412 0.009314622730016708
0.006865040864795446 -0.0008662454783916473 -0.0007495900499634445
0.004604997579008341 -0.0005813826574012637 -0.0015519990120083094
0.0044700102880597115 -0.0008523496217094362 -0.0015489900251850486
0.006797546986490488 -0.0012950283708050847 -0.0007495900499634445
0.006450556684285402 -0.0008254003478214145 -0.025395579636096954
0.006361539475619793 -0.0008120895945467055 -0.020480822771787643
0.006298311520367861 -0.0012114200508221984 -0.020479820668697357
0.006385665852576494 -0.0012305544223636389 -0.02539457380771637
0.0401771105825901 -0.005042911972850561 0.06264873594045639
0.0405116006731987 -0.005083606578409672 0.06698776036500931
0.04011259227991104 -0.007612632121890783 0.06698776036500931
0.039781082421541214 -0.007551094051450491 0.06264974176883698
0.04024956375360489 -0.005044898018240929 0.08032479882240295
0.039833683520555496 -0.004995269235223532 0.0743969976902008
0.03943964093923569 -0.007481615990400314 0.07439900934696198
0.03985155001282692 -0.007556057069450617 0.08032679557800293
0.01758858561515808 -0.0022528385743498802 -0.08422855287790298
0.015609433874487877 -0.002002715365961194 -0.08356355875730515
0.01545360404998064 -0.0029843500815331936 -0.08356355875730515
0.017412904649972916 -0.003358542686328292 -0.0842275619506836
0.011067510582506657 -0.001396268722601235 -0.0006412648363038898
0.013140954077243805 -0.0016573102911934257 0.00025843604817055166
0.01301092840731144 -0.00247914413921535 0.00025843604817055166
0.010957336984574795 -0.002088078297674656 -0.0006412648363038898
0.02521238848567009 -0.0031749242916703224 0.011506201699376106
0.02496424876153469 -0.004752091597765684 0.011507204733788967
0.007532909512519836 -0.0009734840714372694 -0.06115894019603729
0.007458034437149763 -0.0014485211577266455 -0.06115894019603729
0.037772148847579956 -0.004751100204885006 0.0349515825510025
0.03739795833826065 -0.007110398728400469 0.03495359048247337
0.04230712726712227 -0.00530196912586689 0.08889152109622955
0.041888266801834106 -0.007941167801618576 0.08889351785182953
0.005616954527795315 -0.0007139212102629244 -0.005798746831715107
0.005561214406043291 -0.0010658313985913992 -0.00579975126311183
0.03781880438327789 -0.004805685020983219 -0.0882187932729721
0.036631710827350616 -0.004655809607356787 -0.08973974734544754
0.03744262456893921 -0.007176894694566727 -0.0882187932729721
0.035422779619693756 -0.00679277628660202 -0.08973872661590576
0.03533642739057541 -0.004446385893970728 0.02907995879650116
0.03498704731464386 -0.006653824355453253 0.029080960899591446
0.02961833029985428 -0.0037307546008378267 0.01480510551482439
0.02932552620768547 -0.005581866484135389 0.014806107617914677
0.0083681745454669 -0.0010841313051059842 -0.0776524618268013
0.008284149691462517 -0.0016124123940244317 -0.07765145599842072
0.006298311520367861 -0.0008029383607208729 -0.016083624213933945
0.006235916633158922 -0.0011981091229245067 -0.01608262024819851
0.04087289050221443 -0.005127279553562403 0.07159359008073807
0.04046991467475891 -0.0076791332103312016 0.07159558683633804
0.039338402450084686 -0.004935716278851032 0.06782326847314835
0.03894932195544243 -0.007391293067485094 0.06782425940036774
0.012161080725491047 -0.001565410871990025 -0.08273808658123016
0.012040364556014538 -0.0023308065719902515 -0.08273708075284958
0.0149235799908638 -0.0018816273659467697 0.0011320587946102023
0.014776681549847126 -0.002815619809553027 0.0011330615961924195
0.012971227988600731 -0.0033267848193645477 0.002350717317312956
0.01652655377984047 -0.004237948916852474 0.004423941019922495
0.00950622372329235 -0.002438449766486883 0.0005673635168932378
0.009333519265055656 -0.0030300114303827286 0.0005673635168932378
0.012736985459923744 -0.004133730661123991 0.002351720118895173
0.01622779481112957 -0.005266234278678894 0.0044249435886740685
0.0065978094935417175 -0.0017130784690380096 -0.036713555455207825
0.006786659359931946 -0.001763826352544129 -0.04292118921875954
0.006421438883990049 -0.0016648260643705726 -0.030811836943030357
0.006304135080426931 -0.002067484660074115 -0.030811836943030357
0.006478010211139917 -0.0021265519317239523 -0.036713555455207825
0.0066627012565732 -0.0021897791884839535 -0.04292118921875954
0.0385473370552063 -0.009860766120254993 0.05381421372294426
0.03818207606673241 -0.009769448079168797 0.04908501356840134
0.03890068829059601 -0.009948109276592731 0.058340802788734436
0.03819795697927475 -0.012367954477667809 0.058341801166534424
0.03785155713558197 -0.012258773669600487 0.053815215826034546
0.03749225288629532 -0.012144629843533039 0.04908702149987221
0.03980490192770958 -0.010164488106966019 0.0876026451587677
0.03996172547340393 -0.010204188525676727 0.08885540813207626
0.039573635905981064 -0.010106919333338737 0.08494867384433746
0.03885899484157562 -0.012565473094582558 0.08495068550109863
0.039086293429136276 -0.012638921849429607 0.08760464936494827
0.03924013674259186 -0.012687557376921177 0.08885641396045685
0.022364750504493713 -0.005784342531114817 -0.08565683662891388
0.025287821888923645 -0.0065347133204340935 -0.08640308678150177
0.019550863653421402 -0.0050627561286091805 -0.08487650007009506
0.01919552870094776 -0.0062855822034180164 -0.08487650007009506
0.02195780538022518 -0.0071838428266346455 -0.08565584570169449
0.024828268215060234 -0.008115849457681179 -0.08640208095312119
0.007349406369030476 -0.0018865898018702865 -0.002092621987685561
0.006366778630763292 -0.0016354741528630257 -0.002883997978642583
0.008859079331159592 -0.0022736857645213604 -0.0014597221743315458
0.00869828648865223 -0.002825545147061348 -0.0014597221743315458
0.007216404192149639 -0.0023441570810973644 -0.002092622220516205
0.006251642480492592 -0.0020315025467425585 -0.002883997978642583
0.028713122010231018 -0.007357544265687466 0.017017748206853867
0.030507657676935196 -0.007816103287041187 0.01985827647149563
0.026733970269560814 -0.0068503487855196 0.014212326146662235
0.026250597089529037 -0.008515853434801102 0.014214333146810532
0.028194017708301544 -0.009144139476120472 0.017017748206853867
0.029955796897411346 -0.009714857675135136 0.019859276711940765
0.035064466297626495 -0.00898136105388403 0.027087979018688202
0.033760253340005875 -0.008648856543004513 0.023613549768924713
0.03613841161131859 -0.009255306795239449 0.03088637813925743
0.03548630326986313 -0.011503439396619797 0.030887387692928314
0.03443121910095215 -0.0111639853566885 0.027088984847068787
0.033149830996990204 -0.010750090703368187 0.02361455000936985
0.007710111793130636 -0.0020125750452280045 -0.06892023980617523
0.007824086584150791 -0.002043356653302908 -0.07126528769731522
0.007570345886051655 -0.001975137973204255 -0.06584802269935608
0.007432244718074799 -0.0024510070215910673 -0.0658470094203949
0.007569514214992523 -0.0024975952692329884 -0.06892023980617523
0.007681825663894415 -0.0025350323412567377 -0.07126427441835403
0.04135825112462044 -0.010562500916421413 0.0880851000547409
0.04096619039773941 -0.010464238934218884 0.08634887635707855
0.04144856706261635 -0.010586322285234928 0.088504359126091
0.04070018231868744 -0.013162991032004356 0.0885053500533104
0.04061085730791092 -0.013133212924003601 0.08808709681034088
0.040226735174655914 -0.013010135851800442 0.08634988963603973
0.006106134504079819 -0.0015733137261122465 -0.006123722996562719
0.006169361062347889 -0.0015899523859843612 -0.007012389600276947
0.005898149684071541 -0.001520069781690836 -0.005912089254707098
0.005791661329567432 -0.0018886185716837645 -0.005912089254707098
0.005995486862957478 -0.001954341772943735 -0.006122721824795008
0.006057881284505129 -0.001975140068680048 -0.007012389600276947
0.03589920327067375 -0.009190790355205536 0.03630264103412628
0.03640838339924812 -0.009317837655544281 0.04163765907287598
0.03534138947725296 -0.009049849584698677 0.0326928049325943
0.03470318019390106 -0.011248353868722916 0.032693807035684586
0.03525106608867645 -0.011424034833908081 0.03630364313721657
0.03575032204389572 -0.011582843959331512 0.04163866117596626
0.00863273162394762 -0.0022546688560396433 -0.0807579904794693
0.009124408476054668 -0.0023811233695596457 -0.08139590919017792
0.008309939876198769 -0.002171475440263748 -0.07897642999887466
0.008158527314662933 -0.002693932969123125 -0.07897543162107468
0.008474662899971008 -0.0027979249134659767 -0.08075748383998871
0.008958019316196442 -0.0029551612678915262 -0.08139539510011673
0.024426287040114403 -0.0062617650255560875 0.00931562576442957
0.021781131625175476 -0.005583850666880608 0.0067168246023356915
0.026839181780815125 -0.006879132706671953 0.012033786624670029
0.026353823021054268 -0.008549599908292294 0.012034788727760315
0.023984597995877266 -0.007782356347888708 0.00931662879884243
0.021387087181210518 -0.006940671242773533 0.006717827171087265
0.006702262442559004 -0.0017198411514982581 -0.0007485870737582445
0.004495816305279732 -0.0011540858540683985 -0.0015519990120083094
0.004328074865043163 -0.0014061944093555212 -0.0015489900251850486
0.006581170950084925 -0.0021377059165388346 -0.0007485870737582445
0.0062966481782495975 -0.001630716840736568 -0.02539457380771637
0.00621012644842267 -0.001605758792720735 -0.020479820668697357
0.00609698286280036 -0.0019942745566368103 -0.020479820668697357
0.006181840784847736 -0.0020250556990504265 -0.02539457380771637
0.039226241409778595 -0.010030491277575493 0.06265074014663696
0.03955378383398056 -0.010111880488693714 0.06698976457118988
0.03884013742208481 -0.012570435181260109 0.06699077039957047
0.038519542664289474 -0.012469195760786533 0.06265275180339813
0.0392967127263546 -0.010038432665169239 0.08032780885696411
0.0388917550444603 -0.009938185103237629 0.07440000772476196
0.03818902373313904 -0.012355051934719086 0.07440102100372314
0.0385880284011364 -0.01248110644519329 0.0803288072347641
0.017169727012515068 -0.004451344255357981 -0.0842275619506836
0.015237227082252502 -0.0039550671353936195 -0.08356255292892456
0.014960303902626038 -0.0049089109525084496 -0.08356154710054398
0.016858067363500595 -0.005526279099285603 -0.08422654867172241
0.010804484598338604 -0.002771947532892227 -0.0006412649527192116
0.012829292565584183 -0.0032920455560088158 0.00025943908258341253
0.012597033753991127 -0.0040910504758358 0.0002604418550617993
0.01060895062983036 -0.003444898407906294 -0.0006402619183063507
0.02461586333811283 -0.00630940729752183 0.011507204733788967
0.022268474102020264 -0.0057089123874902725 0.00895654782652855
0.021865498274564743 -0.007094516418874264 0.00895755086094141
0.024171197786927223 -0.007841909304261208 0.011508207768201828
0.0073532103560864925 -0.00191773462574929 -0.06115894019603729
0.007125258445739746 -0.0018570030806586146 -0.055434759706258774
0.006995476316660643 -0.0023045861162245274 -0.055434759706258774
0.007218435872346163 -0.0023802921641618013 -0.06115894019603729
0.036877863109111786 -0.009442899376153946 0.03495459631085396
0.03739696741104126 -0.009573915973305702 0.039359819144010544
0.036723025143146515 -0.011900460347533226 0.03936082124710083
0.03621185943484306 -0.011736690066754818 0.034955598413944244
0.04130663350224495 -0.010549599304795265 0.08889453113079071
0.0409572534263134 -0.010460267774760723 0.08917737752199173
0.04021880030632019 -0.01300517376512289 0.0891793742775917
0.04056122899055481 -0.013116340152919292 0.0888955295085907
0.036920543760061264 -0.009520313702523708 -0.08821677416563034
0.035761237144470215 -0.00922353845089674 -0.08973773568868637
0.03402923420071602 -0.008778875693678856 -0.08780956268310547
0.033413853496313095 -0.010904924012720585 -0.08780855685472488
0.03625056520104408 -0.011825022287666798 -0.08821578323841095
0.0342942476272583 -0.011191771365702152 -0.08973473310470581
0.005483844317495823 -0.0014135816600173712 -0.005798746831715107
0.005108639597892761 -0.001317076850682497 -0.0053624375723302364
0.005015462636947632 -0.0016365412157028913 -0.0053624375723302364
0.005384843796491623 -0.0017563402652740479 -0.005798746831715107
0.03449970856308937 -0.008835457265377045 0.02908196486532688
0.03340094909071922 -0.00855555571615696 0.025674737989902496
0.03279747813940048 -0.010633962228894234 0.025675740092992783
0.03387737646698952 -0.010982348583638668 0.029083970934152603
0.02891659550368786 -0.0074111418798565865 0.014807111583650112
0.03072403371334076 -0.007873672060668468 0.017634600400924683
0.030170191079378128 -0.00978532899171114 0.017636604607105255
0.028394509106874466 -0.00921064056456089 0.014808112755417824
0.008168510161340237 -0.002134038135409355 -0.07765045017004013
0.008092802949249744 -0.002114071510732174 -0.07603459805250168
0.00794471800327301 -0.002623218111693859 -0.07603359967470169
0.008019593544304371 -0.0026481759268790483 -0.07765045017004013
0.006148562766611576 -0.001588288345374167 -0.016083624213933945
0.006126932334154844 -0.0015808010939508677 -0.012283215299248695
0.006015452556312084 -0.001963492948561907 -0.012283215299248695
0.006037915591150522 -0.001972643891349435 -0.01608262024819851
0.03990713506937027 -0.010200217366218567 0.07159659266471863
0.04027339071035385 -0.010290541686117649 0.07656852155923843
0.03954584524035454 -0.012793760746717453 0.07656951993703842
0.039185550063848495 -0.01268060877919197 0.07159760594367981
0.03840738907456398 -0.009817092679440975 0.06782528012990952
0.03781880438327789 -0.009670194238424301 0.06002585589885712
0.03713691979646683 -0.012021553702652454 0.0600268617272377
0.03771458566188812 -0.012205176055431366 0.06782727688550949
0.011870848014950752 -0.0030876407399773598 -0.08273708075284958
0.010884566232562065 -0.002834221115335822 -0.08231745660305023
0.010685941204428673 -0.0035165706649422646 -0.08231745660305023
0.011655096895992756 -0.0038316333666443825 -0.0827360674738884
0.01457122527062893 -0.0037377013359218836 0.0011340643977746367
0.01647990383207798 -0.004227031022310257 0.0023577383253723383
0.01618114486336708 -0.005253330338746309 0.0023577383253723383
0.014307203702628613 -0.004644895438104868 0.001134064164943993
0.01959949918091297 -0.005025043617933989 0.006611507851630449
0.01924317143857479 -0.006244891323149204 0.006611507851630449
0.006949720438569784 -0.0018087509088218212 -0.04925921931862831
0.0068232654593884945 -0.002244686707854271 -0.04925921931862831
0.03781582787632942 -0.009678134694695473 0.04416825622320175
0.03713294491171837 -0.012031477876007557 0.04416925460100174
0.04042723402380943 -0.010324288159608841 0.08927265554666519
0.03969770297408104 -0.012835447676479816 0.08927366882562637
0.027992527931928635 -0.007229499984532595 -0.0869547426700592
0.027484340593218803 -0.00897937174886465 -0.08695374429225922
0.005996556952595711 -0.0015401890268549323 -0.0041818940080702305
0.005887376144528389 -0.0019143812824040651 -0.0041818940080702305
0.03206993266940117 -0.008215109817683697 0.02267272397875786
0.03149028122425079 -0.010211135260760784 0.022673727944493294
0.00796468649059534 -0.0020799620542675257 -0.07376980036497116
0.007819927297532558 -0.0025807893835008144 -0.07376980036497116
