-1.6618365572540483e-09 0.013588104397058487 -0.029970593750476837
0.0026509067974984646 0.013327013701200485 -0.029970593750476837
0.005199942737817764 0.012553771957755089 -0.029970593750476837
0.007549147121608257 0.011298095807433128 -0.029970593750476837
0.009608243592083454 0.009608239866793156 -0.029970593750476837
0.011298096738755703 0.007549143396317959 -0.029970593750476837
0.012553773820400238 0.0051999399438500404 -0.029970593750476837
0.013327015563845634 0.0026509049348533154 -0.029970593750476837
0.01358810719102621 -3.233252998668945e-09 -0.029970593750476837
0.013327018357813358 -0.0026509109884500504 -0.029970593750476837
0.012553773820400238 -0.0051999459974467754 -0.029970593750476837
0.011298096738755703 -0.00754915364086628 -0.029970593750476837
0.009608243592083454 -0.009608246386051178 -0.029970593750476837
0.007549144793301821 -0.011298101395368576 -0.029970593750476837
0.0051999399438500404 -0.012553779408335686 -0.029970593750476837
0.002650903770700097 -0.013327023014426231 -0.029970593750476837
-6.089403647990821e-09 -0.01358811091631651 -0.029970593750476837
-0.002650915877893567 -0.013327023014426231 -0.029970593750476837
-0.0051999520510435104 -0.012553779408335686 -0.029970593750476837
-0.00754915876314044 -0.011298098601400852 -0.029970593750476837
-0.009608250111341476 -0.009608241729438305 -0.029970593750476837
-0.011298106983304024 -0.007549146190285683 -0.029970593750476837
-0.012553779408335686 -0.005199939012527466 -0.029970593750476837
-0.013327021151781082 -0.0026509009767323732 -0.029970593750476837
-0.01358811091631651 8.861540834459447e-09 -0.029970593750476837
-0.013327018357813358 0.0026509182062000036 -0.029970593750476837
-0.012553771026432514 0.005199954845011234 -0.029970593750476837
-0.011298093013465405 0.007549158297479153 -0.029970593750476837
-0.009608234278857708 0.00960825476795435 -0.029970593750476837
-0.007549135480076075 0.0112981041893363 -0.029970593750476837
-0.0051999278366565704 0.012553781270980835 -0.029970593750476837
-0.002650889800861478 0.013327018357813358 -0.029970593750476837
-1.6641030775588206e-09 0.01351821981370449 -0.019214848056435585
-1.5957226651153178e-09 0.013377340510487556 -0.008459102362394333
-1.5528168750833515e-09 0.013460933230817318 0.002296644961461425
-1.4631523770347599e-09 0.013527204282581806 0.01305239088833332
-1.3454984904015532e-09 0.013070090673863888 0.01936606876552105
0.0025498480536043644 0.012818953022360802 0.01936606876552105
0.0026390261482447386 0.013267281465232372 0.013052385300397873
0.002626097993925214 0.013202286325395107 0.0022966424003243446
0.002609789138659835 0.013120298273861408 -0.008459105156362057
0.002637273631989956 0.013258473947644234 -0.019214849919080734
0.005001707933843136 0.012075189501047134 0.01936606876552105
0.005176637787371874 0.012497507967054844 0.013052385300397873
0.005151277873665094 0.012436282820999622 0.0022966424003243446
0.005119286011904478 0.012359053827822208 -0.008459105156362057
0.0051731993444263935 0.01248920988291502 -0.019214849919080734
0.007261356338858604 0.01086738333106041 0.01936606876552105
0.007515314035117626 0.011247457936406136 0.013052385300397873
0.007478495128452778 0.011192359030246735 0.0022966424003243446
0.007432053796947002 0.011122850701212883 -0.008459105156362057
0.007510322146117687 0.011239992454648018 -0.019214849919080734
0.009241950698196888 0.009241948835551739 0.01936606876552105
0.009565180167555809 0.00956517830491066 0.013052385300397873
0.009518317878246307 0.009518318809568882 0.0022966424003243446
0.009459208697080612 0.009459207765758038 -0.008459105156362057
0.00955883041024208 0.009558826684951782 -0.019214849919080734
0.010867386125028133 0.007261351682245731 0.01936606876552105
0.01124746073037386 0.007515310309827328 0.013052385300397873
0.011192360892891884 0.007478491403162479 0.0022966424003243446
0.011122855357825756 0.007432050071656704 -0.008459105156362057
0.011239993385970592 0.007510320749133825 -0.019214849919080734
0.012075193226337433 0.005001704674214125 0.01936606876552105
0.012497510761022568 0.005176635459065437 0.013052385300397873
0.012436285614967346 0.005151275545358658 0.0022966424003243446
0.012359053827822208 0.005119284149259329 -0.008459105156362057
0.012489212676882744 0.005173197016119957 -0.019214849919080734
0.012818954885005951 0.0025498459581285715 0.01936606876552105
0.013267284259200096 0.0026390242855995893 0.013052385300397873
0.013202290050685406 0.0026260956656187773 0.0022966424003243446
0.013120301999151707 0.002609787043184042 -0.008459105156362057
0.013258474878966808 0.002637271536514163 -0.019214849919080734
0.013070091605186462 -2.9589959371634222e-09 0.01936606876552105
0.01352720707654953 -3.156941819071335e-09 0.013052385300397873
0.013460940681397915 -3.2057267951302038e-09 0.0022966424003243446
0.013377342373132706 -3.2035680774811226e-09 -0.008459105156362057
0.013518224470317364 -3.242881962961519e-09 -0.019214849919080734
0.012818954885005951 -0.002549851778894663 0.01936606876552105
0.013267287984490395 -0.002639029873535037 0.013052385300397873
0.013202290050685406 -0.002626101952046156 0.0022966424003243446
0.013120301999151707 -0.002609793096780777 -0.008459105156362057
0.013258474878966808 -0.0026372780557721853 -0.019214849919080734
0.012075193226337433 -0.005001711193472147 0.01936606876552105
0.012497510761022568 -0.005176641047000885 0.013052385300397873
0.012436285614967346 -0.00515128206461668 0.0022966424003243446
0.012359053827822208 -0.005119290668517351 -0.008459105156362057
0.012489212676882744 -0.005173203535377979 -0.019214849919080734
0.010867386125028133 -0.007261359132826328 0.01936606876552105
0.01124746073037386 -0.007515317760407925 0.013052385300397873
0.011192360892891884 -0.007478503510355949 0.0022966424003243446
0.011122855357825756 -0.007432057522237301 -0.008459105156362057
0.011239993385970592 -0.007510326337069273 -0.019214849919080734
0.009241950698196888 -0.00924195721745491 0.01936606876552105
0.009565180167555809 -0.009565185755491257 0.013052385300397873
0.009518317878246307 -0.009518326260149479 0.0022966424003243446
0.009459208697080612 -0.009459213353693485 -0.008459105156362057
0.00955883041024208 -0.00955883227288723 -0.019214849919080734
0.007261354010552168 -0.010867392644286156 0.01936606876552105
0.007515314035117626 -0.011247468180954456 0.013052385300397873
0.007478495128452778 -0.01119236834347248 0.0022966424003243446
0.007432053796947002 -0.01112285815179348 -0.008459105156362057
0.007510322146117687 -0.01123999897390604 -0.019214849919080734
0.005001705139875412 -0.012075199745595455 0.01936606876552105
0.005176635924726725 -0.01249751541763544 0.013052385300397873
0.005151274148374796 -0.012436293065547943 0.0022966424003243446
0.0051192850805819035 -0.012359057553112507 -0.008459105156362057
0.005173198878765106 -0.012489219196140766 -0.019214849919080734
0.0025498445611447096 -0.012818962335586548 0.01936606876552105
0.002639023121446371 -0.013267293572425842 0.013052385300397873
0.0026260947342962027 -0.013202298432588577 0.0022966424003243446
0.0026097858790308237 -0.013120308518409729 -0.008459105156362057
0.0026372703723609447 -0.013258482329547405 -0.019214849919080734
-5.604276598347724e-09 -0.013070101849734783 0.01936606876552105
-5.870875785518592e-09 -0.013527216389775276 0.013052385300397873
-5.938949332318089e-09 -0.013460945338010788 0.0022966424003243446
-5.9546150232847594e-09 -0.013377349823713303 -0.008459105156362057
-6.068901381439673e-09 -0.01351823192089796 -0.019214849919080734
-0.002549855737015605 -0.012818960472941399 0.01936606876552105
-0.0026390342973172665 -0.013267291709780693 0.013052385300397873
-0.0026261063758283854 -0.013202298432588577 0.0022966424003243446
-0.0026097972877323627 -0.013120303861796856 -0.008459105156362057
-0.0026372820138931274 -0.01325848139822483 -0.019214849919080734
-0.005001716315746307 -0.012075195088982582 0.01936606876552105
-0.005176646169275045 -0.012497512623667717 0.013052385300397873
-0.005151286721229553 -0.01243628840893507 0.0022966424003243446
-0.005119296256452799 -0.012359054759144783 -0.008459105156362057
-0.005173209123313427 -0.012489214539527893 -0.019214849919080734
-0.007261362858116627 -0.010867387987673283 0.01936606876552105
-0.007515324279665947 -0.011247463524341583 0.013052385300397873
-0.007478506304323673 -0.011192364618182182 0.0022966424003243446
-0.007432062644511461 -0.01112285628914833 -0.008459105156362057
-0.007510332390666008 -0.011239992454648018 -0.019214849919080734
-0.009241960942745209 -0.009241952560842037 0.01936606876552105
-0.00956518854945898 -0.009565181098878384 0.013052385300397873
-0.009518332779407501 -0.009518320672214031 0.0022966424003243446
-0.009459216147661209 -0.009459207765758038 -0.008459105156362057
-0.009558836929500103 -0.009558827616274357 -0.019214849919080734
-0.01086739357560873 -0.007261353079229593 0.01936606876552105
-0.01124747097492218 -0.00751531170681119 0.013052385300397873
-0.01119237206876278 -0.0074784960597753525 0.0022966424003243446
-0.011122861877083778 -0.007432051468640566 -0.008459105156362057
-0.011240002699196339 -0.007510320749133825 -0.019214849919080734
-0.012075199745595455 -0.005001703277230263 0.01936606876552105
-0.01249751728028059 -0.005176633130759001 0.013052385300397873
-0.012436295859515667 -0.005151273217052221 0.0022966424003243446
-0.012359061278402805 -0.005119282752275467 -0.008459105156362057
-0.012489219196140766 -0.005173195619136095 -0.019214849919080734
-0.012818960472941399 -0.0025498420000076294 0.01936606876552105
-0.013267293572425842 -0.0026390200946480036 0.013052385300397873
-0.013202298432588577 -0.002626091707497835 0.0022966424003243446
-0.013120308518409729 -0.0026097833178937435 -0.008459105156362057
-0.01325848139822483 -0.0026372678112238646 -0.019214849919080734
-0.013070100918412209 8.674712503875526e-09 0.01936606876552105
-0.013527213595807552 8.883643154433685e-09 0.013052385300397873
-0.013460940681397915 8.775870696808852e-09 0.0022966424003243446
-0.01337734516710043 8.703622711436765e-09 -0.008459105156362057
-0.01351823378354311 8.789710292944619e-09 -0.019214849919080734
-0.012818954885005951 0.0025498587638139725 0.01936606876552105
-0.013267284259200096 0.0026390370912849903 0.013052385300397873
-0.01320229284465313 0.0026261089369654655 0.0022966424003243446
-0.013120305724442005 0.0026098003145307302 -0.008459105156362057
-0.013258477672934532 0.0026372852735221386 -0.019214849919080734
-0.012075190432369709 0.005001718178391457 0.01936606876552105
-0.012497510761022568 0.005176648963242769 0.013052385300397873
-0.012436284683644772 0.0051512885838747025 0.0022966424003243446
-0.01235905196517706 0.005119298119097948 -0.008459105156362057
-0.012489207088947296 0.005173210054636002 -0.019214849919080734
-0.01086738146841526 0.007261365186423063 0.01936606876552105
-0.011247457005083561 0.00751532381400466 0.013052385300397873
-0.011192354373633862 0.007478506304323673 0.0022966424003243446
-0.01112284790724516 0.007432063575834036 -0.008459105156362057
-0.01123998872935772 0.00751033378764987 -0.019214849919080734
-0.009241941384971142 0.009241960011422634 0.01936606876552105
-0.009565170854330063 0.00956518854945898 0.013052385300397873
-0.009518314152956009 0.009518329054117203 0.0022966424003243446
-0.009459201246500015 0.009459218010306358 -0.008459105156362057
-0.00955881830304861 0.009558839723467827 -0.019214849919080734
-0.0072613428346812725 0.010867392644286156 0.01936606876552105
-0.007515300530940294 0.011247470043599606 0.013052385300397873
-0.007478483486920595 0.011192369274795055 0.0022966424003243446
-0.007432041224092245 0.011122862808406353 -0.008459105156362057
-0.00751030957326293 0.011240003630518913 -0.019214849919080734
-0.005001693498343229 0.012075197882950306 0.01936606876552105
-0.005176621489226818 0.012497514486312866 0.013052385300397873
-0.005151262506842613 0.01243629027158022 0.0022966424003243446
-0.0051192715764045715 0.012359059415757656 -0.008459105156362057
-0.005173184908926487 0.012489216402173042 -0.019214849919080734
-0.0025498312897980213 0.012818957678973675 0.01936606876552105
-0.002639009151607752 0.013267287984490395 0.013052385300397873
-0.002626080997288227 0.013202290050685406 0.0022966424003243446
-0.002609771676361561 0.013120303861796856 -0.008459105156362057
-0.002637256868183613 0.013258477672934532 -0.019214849919080734
-1.0047072063201767e-09 0.009405747056007385 0.01936606876552105
0.0018349700840190053 0.009225018322467804 0.01936606876552105
0.0035994250793009996 0.008689776994287968 0.01936606876552105
0.005225555505603552 0.007820592261850834 0.01936606876552105
0.006650869268923998 0.006650867406278849 0.01936606876552105
0.007820595987141132 0.005225552245974541 0.01936606876552105
0.008689780719578266 0.003599422052502632 0.01936606876552105
0.009225021116435528 0.001834968221373856 0.01936606876552105
0.009405750781297684 -2.2545385558458975e-09 0.01936606876552105
0.009225021116435528 -0.0018349732272326946 0.01936606876552105
0.008689780719578266 -0.003599426243454218 0.01936606876552105
0.007820595987141132 -0.005225557833909988 0.01936606876552105
0.006650869268923998 -0.006650873459875584 0.01936606876552105
0.00522555410861969 -0.00782059971243143 0.01936606876552105
0.0035994229838252068 -0.008689786307513714 0.01936606876552105
0.001834967639297247 -0.00922502763569355 0.01936606876552105
-4.069490522340402e-09 -0.009405756369233131 0.01936606876552105
-0.0018349759047850966 -0.009225024841725826 0.01936606876552105
-0.0035994299687445164 -0.00868978351354599 0.01936606876552105
-0.0052255610935389996 -0.007820598781108856 0.01936606876552105
-0.006650876719504595 -0.00665087066590786 0.01936606876552105
-0.007820600643754005 -0.005225554574280977 0.01936606876552105
-0.008689787238836288 -0.0035994211211800575 0.01936606876552105
-0.009225025773048401 -0.0018349660094827414 0.01936606876552105
-0.009405754506587982 6.117532258542724e-09 0.01936606876552105
-0.009225022047758102 0.0018349777674302459 0.01936606876552105
-0.008689779788255692 0.003599432297050953 0.01936606876552105
-0.007820592261850834 0.005225562024861574 0.01936606876552105
-0.006650863215327263 0.006650874856859446 0.01936606876552105
-0.005225545726716518 0.007820598781108856 0.01936606876552105
-0.0035994132049381733 0.008689784444868565 0.01936606876552105
-0.0018349580932408571 0.009225021116435528 0.01936606876552105
-9.921922172750897e-10 0.009141313843429089 0.028048286214470863
0.0017833815654739738 0.008965665474534035 0.028048286214470863
0.003498230827972293 0.00844547338783741 0.028048286214470863
0.005078644026070833 0.00760072423145175 0.028048286214470863
0.006463886238634586 0.006463884841650724 0.028048286214470863
0.007600727956742048 0.005078641232103109 0.028048286214470863
0.008445476181805134 0.0034982278011739254 0.028048286214470863
0.008965668268501759 0.0017833799356594682 0.028048286214470863
0.009141317568719387 -2.209564753385962e-09 0.028048286214470863
0.008965668268501759 -0.001783384825102985 0.028048286214470863
0.008445476181805134 -0.003498231992125511 0.028048286214470863
0.007600727956742048 -0.005078646820038557 0.028048286214470863
0.006463886238634586 -0.006463890895247459 0.028048286214470863
0.005078642629086971 -0.007600731682032347 0.028048286214470863
0.0034982287324965 -0.008445480838418007 0.028048286214470863
0.001783379353582859 -0.008965674787759781 0.028048286214470863
-3.970812123554879e-09 -0.00914132222533226 0.028048286214470863
-0.001783387386240065 -0.008965671993792057 0.028048286214470863
-0.003498236183077097 -0.008445478975772858 0.028048286214470863
-0.005078650079667568 -0.007600730285048485 0.028048286214470863
-0.006463893689215183 -0.006463887635618448 0.028048286214470863
-0.007600732613354921 -0.005078643094748259 0.028048286214470863
-0.008445481769740582 -0.003498226869851351 0.028048286214470863
-0.008965672925114632 -0.0017833777237683535 0.028048286214470863
-0.009141321294009686 5.927133894800818e-09 0.028048286214470863
-0.008965669199824333 0.0017833890160545707 0.028048286214470863
-0.00844547525048256 0.003498237580060959 0.028048286214470863
-0.0076007237657904625 0.0050786505453288555 0.028048286214470863
-0.006463881116360426 0.006463892292231321 0.028048286214470863
-0.0050786342471838 0.007600730285048485 0.028048286214470863
-0.0034982189536094666 0.008445479907095432 0.028048286214470863
-0.0017833700403571129 0.008965669199824333 0.028048286214470863
-9.051082106026342e-10 0.007757175713777542 0.028048286214470863
0.001513349823653698 0.007608124520629644 0.028048286214470863
0.0029685439076274633 0.007166695315390825 0.028048286214470863
0.004309657495468855 0.006449855398386717 0.028048286214470863
0.005485152825713158 0.005485151428729296 0.028048286214470863
0.006449857726693153 0.004309655632823706 0.028048286214470863
0.007166697643697262 0.002968541579321027 0.028048286214470863
0.007608125451952219 0.0015133483102545142 0.028048286214470863
0.007757178507745266 -1.8822781111538234e-09 0.028048286214470863
0.007608125451952219 -0.0015133523847907782 0.028048286214470863
0.007166697643697262 -0.0029685450717806816 0.028048286214470863
0.006449857726693153 -0.004309659358114004 0.028048286214470863
0.005485152825713158 -0.005485157016664743 0.028048286214470863
0.004309657029807568 -0.006449862848967314 0.028048286214470863
0.002968542044982314 -0.007166702765971422 0.028048286214470863
0.0015133476117625833 -0.007608130574226379 0.028048286214470863
-3.43271833180836e-09 -0.007757183164358139 0.028048286214470863
-0.0015133548295125365 -0.0076081291772425175 0.028048286214470863
-0.002968548098579049 -0.007166699972003698 0.028048286214470863
-0.004309663083404303 -0.00644986005499959 0.028048286214470863
-0.00548515934497118 -0.005485153291374445 0.028048286214470863
-0.006449862848967314 -0.004309657029807568 0.028048286214470863
-0.007166702765971422 -0.0029685404151678085 0.028048286214470863
-0.007608130574226379 -0.0015133465640246868 0.028048286214470863
-0.007757180370390415 5.022396720733013e-09 0.028048286214470863
-0.007608126848936081 0.0015133559936657548 0.028048286214470863
-0.007166697643697262 0.002968549495562911 0.028048286214470863
-0.0064498549327254295 0.00430966354906559 0.028048286214470863
-0.005485147703438997 0.005485158413648605 0.028048286214470863
-0.004309650044888258 0.006449861451983452 0.028048286214470863
-0.00296853412874043 0.00716670136898756 0.028048286214470863
-0.0015133402775973082 0.007608125917613506 0.028048286214470863
-1.251105774535688e-09 0.009809373877942562 -0.029970593750476837
0.0019137129420414567 0.00962088629603386 -0.029970593750476837
0.003753884229809046 0.00906267948448658 -0.029970593750476837
0.005449795164167881 0.008156193420290947 -0.029970593750476837
0.006936274468898773 0.006936270277947187 -0.029970593750476837
0.00815619621425867 0.005449793301522732 -0.029970593750476837
0.009062680415809155 0.003753881435841322 -0.029970593750476837
0.009620888158679008 0.0019137116614729166 -0.029970593750476837
0.009809374809265137 -2.2526953635804148e-09 -0.029970593750476837
0.009620888158679008 -0.0019137157360091805 -0.029970593750476837
0.009062680415809155 -0.0037538863252848387 -0.029970593750476837
0.00815619621425867 -0.005449800286442041 -0.029970593750476837
0.006936274468898773 -0.006936277728527784 -0.029970593750476837
0.005449794698506594 -0.00815619807690382 -0.029970593750476837
0.0037538830656558275 -0.009062683209776878 -0.029970593750476837
0.0019137104973196983 -0.009620891883969307 -0.029970593750476837
-4.447405554941497e-09 -0.009809374809265137 -0.029970593750476837
-0.001913719461299479 -0.009620891883969307 -0.029970593750476837
-0.0037538912147283554 -0.009062680415809155 -0.029970593750476837
-0.005449803080409765 -0.008156197145581245 -0.029970593750476837
-0.00693628191947937 -0.006936274468898773 -0.029970593750476837
-0.008156200870871544 -0.005449794698506594 -0.029970593750476837
-0.009062683209776878 -0.0037538812030106783 -0.029970593750476837
-0.009620892815291882 -0.0019137082854285836 -0.029970593750476837
-0.009809375740587711 6.478641623175463e-09 -0.029970593750476837
-0.009620890952646732 0.0019137212075293064 -0.029970593750476837
-0.009062678553164005 0.0037538923788815737 -0.029970593750476837
-0.008156190626323223 0.005449803080409765 -0.029970593750476837
-0.006936267949640751 0.006936280522495508 -0.029970593750476837
-0.005449787247925997 0.008156202733516693 -0.029970593750476837
-0.0037538737524300814 0.009062685072422028 -0.029970593750476837
-0.0019137004856020212 0.009620890021324158 -0.029970593750476837
-9.269980338899586e-10 0.005406546406447887 -0.029970593750476837
0.0010547642596065998 0.005302660632878542 -0.029970593750476837
0.0020689957309514284 0.004994996357709169 -0.029970593750476837
0.0030037162359803915 0.004495377652347088 -0.029970593750476837
0.0038230055943131447 0.0038230044301599264 -0.029970593750476837
0.00449537904933095 0.0030037150718271732 -0.029970593750476837
0.004994997289031744 0.0020689943339675665 -0.029970593750476837
0.005302662029862404 0.0010547635611146688 -0.029970593750476837
0.005406546872109175 -1.3078972349589435e-09 -0.029970593750476837
0.005302662029862404 -0.001054766122251749 -0.029970593750476837
0.004994998686015606 -0.002068997360765934 -0.029970593750476837
0.00449537904933095 -0.003003718564286828 -0.029970593750476837
0.0038230055943131447 -0.003823009319603443 -0.029970593750476837
0.003003715770319104 -0.004495381843298674 -0.029970593750476837
0.00206899456679821 -0.0049950010143220425 -0.029970593750476837
0.0010547628626227379 -0.00530266435816884 -0.029970593750476837
-2.6886750603694054e-09 -0.005406550131738186 -0.029970593750476837
-0.0010547686833888292 -0.0053026629611849785 -0.029970593750476837
-0.002068999456241727 -0.004994999151676893 -0.029970593750476837
-0.0030037204269319773 -0.004495379980653524 -0.029970593750476837
-0.003823010716587305 -0.0038230065256357193 -0.029970593750476837
-0.004495382774621248 -0.0030037155374884605 -0.029970593750476837
-0.004995000548660755 -0.0020689936354756355 -0.029970593750476837
-0.005302663892507553 -0.0010547619313001633 -0.029970593750476837
-0.005406548269093037 3.5044778190496118e-09 -0.029970593750476837
-0.0053026615642011166 0.0010547691490501165 -0.029970593750476837
-0.004994997754693031 0.002069000154733658 -0.029970593750476837
-0.0044953771866858006 0.0030037211254239082 -0.029970593750476837
-0.003823002567514777 0.003823008853942156 -0.029970593750476837
-0.0030037120450288057 0.004495381377637386 -0.029970593750476837
-0.002068989910185337 0.004995000082999468 -0.029970593750476837
-0.0010547582060098648 0.005302662029862404 -0.029970593750476837
-5.953424975224664e-10 0.002222630428150296 -0.029970593750476837
0.0004336131678428501 0.0021799232345074415 -0.029970593750476837
0.0008505635778419673 0.0020534424111247063 -0.029970593750476837
0.001234827097505331 0.0018480493454262614 -0.029970593750476837
0.0015716369962319732 0.0015716367634013295 -0.029970593750476837
0.001848049694672227 0.001234826515428722 -0.029970593750476837
0.00205344264395535 0.0008505634032189846 -0.029970593750476837
0.0021799232345074415 0.0004336131678428501 -0.029970593750476837
0.00222263066098094 -5.598140284668318e-10 -0.029970593750476837
0.0021799232345074415 -0.0004336141573730856 -0.029970593750476837
0.0020534431096166372 -0.0008505643927492201 -0.029970593750476837
0.001848049694672227 -0.0012348283780738711 -0.029970593750476837
0.0015716369962319732 -0.0015716380439698696 -0.029970593750476837
0.0012348268646746874 -0.0018480507424101233 -0.029970593750476837
0.0008505629957653582 -0.002053444040939212 -0.029970593750476837
0.0004336126730777323 -0.002179924165830016 -0.029970593750476837
-1.3195675663268958e-09 -0.002222631825134158 -0.029970593750476837
-0.00043361540883779526 -0.0021799239329993725 -0.029970593750476837
-0.0008505656151100993 -0.0020534435752779245 -0.029970593750476837
-0.001234829192981124 -0.001848050276748836 -0.029970593750476837
-0.0015716393245384097 -0.001571637112647295 -0.029970593750476837
-0.0018480515573173761 -0.0012348268646746874 -0.029970593750476837
-0.002053444739431143 -0.00085056311218068 -0.029970593750476837
-0.00217992439866066 -0.0004336126148700714 -0.029970593750476837
-0.0022226315923035145 1.4185526087118205e-09 -0.029970593750476837
-0.002179923700168729 0.000433615263318643 -0.029970593750476837
-0.0020534428767859936 0.0008505656151100993 -0.029970593750476837
-0.0018480488797649741 0.001234829192981124 -0.029970593750476837
-0.0015716360649093986 0.0015716389752924442 -0.029970593750476837
-0.0012348255841061473 0.0018480512080714107 -0.029970593750476837
-0.0008505615987814963 0.0020534442737698555 -0.029970593750476837
-0.0004336111596785486 0.002179923700168729 -0.029970593750476837
0.002649786649271846 0.01332138106226921 -0.029086556285619736
0.0051977443508803844 0.01254846528172493 -0.029086556285619736
0.007545955013483763 0.011293320916593075 -0.029086556285619736
0.009604181163012981 0.009604178369045258 -0.029086556285619736
0.011293323710560799 0.007545951288193464 -0.029086556285619736
0.012548468075692654 0.005197741091251373 -0.029086556285619736
0.01332138106226921 0.002649784553796053 -0.029086556285619736
0.013582362793385983 -3.234044143596293e-09 -0.029086556285619736
0.01332138106226921 -0.002649790607392788 -0.029086556285619736
0.012548470869660378 -0.005197747610509396 -0.029086556285619736
0.011293323710560799 -0.007545963395386934 -0.029086556285619736
0.009604181163012981 -0.00960418488830328 -0.029086556285619736
0.007545955013483763 -0.011293328367173672 -0.029086556285619736
0.005197742022573948 -0.012548476457595825 -0.029086556285619736
0.0026497833896428347 -0.013321388512849808 -0.029086556285619736
-6.08771788535023e-09 -0.013582369312644005 -0.029086556285619736
-0.0026497950311750174 -0.013321386650204659 -0.029086556285619736
-0.005197753198444843 -0.012548470869660378 -0.029086556285619736
-0.007545967120677233 -0.01129332184791565 -0.029086556285619736
-0.009604192338883877 -0.009604180231690407 -0.029086556285619736
-0.01129333209246397 -0.007545954547822475 -0.029086556285619736
-0.012548476457595825 -0.005197740625590086 -0.029086556285619736
-0.013321386650204659 -0.002649780362844467 -0.029086556285619736
-0.013582369312644005 8.8556371125037e-09 -0.029086556285619736
-0.01332138106226921 0.0026497975923120975 -0.029086556285619736
-0.012548461556434631 0.0051977550610899925 -0.029086556285619736
-0.011293316259980202 0.007545968051999807 -0.029086556285619736
-0.00960417278110981 0.009604193270206451 -0.029086556285619736
-0.007545945700258017 0.01129333209246397 -0.029086556285619736
-0.005197729449719191 0.012548473663628101 -0.029086556285619736
-0.0026497694198042154 0.013321381993591785 -0.029086556285619736
-1.6620228526775804e-09 0.013582362793385983 -0.029086556285619736
0.008689780719578266 0.003599422052502632 0.02148943394422531
0.009225021116435528 0.001834968221373856 0.02148943394422531
-0.0052255610935389996 -0.007820598781108856 0.02148943394422531
-0.006650876719504595 -0.00665087066590786 0.02148943394422531
0.007820595987141132 0.005225552245974541 0.02148943394422531
-0.0035994299687445164 -0.00868978351354599 0.02148943394422531
-0.0018349580932408571 0.009225021116435528 0.02148943394422531
-1.0047072063201767e-09 0.009405747056007385 0.02148943953216076
0.006650869268923998 0.006650867406278849 0.02148943394422531
-0.0018349759047850966 -0.009225024841725826 0.02148943394422531
-0.0035994132049381733 0.008689784444868565 0.02148943394422531
0.005225555505603552 0.007820592261850834 0.02148943394422531
-4.069490522340402e-09 -0.009405756369233131 0.02148943394422531
-0.005225545726716518 0.007820598781108856 0.02148943394422531
0.0035994250793009996 0.008689776994287968 0.02148943394422531
0.001834967639297247 -0.00922502763569355 0.02148943394422531
-0.006650863215327263 0.006650874856859446 0.02148943394422531
0.0018349700840190053 0.009225018322467804 0.02148943394422531
0.0035994229838252068 -0.008689786307513714 0.02148943394422531
-0.007820592261850834 0.005225562024861574 0.02148943394422531
0.00522555410861969 -0.00782059971243143 0.02148943394422531
-0.008689779788255692 0.003599432297050953 0.02148943394422531
0.006650869268923998 -0.006650873459875584 0.02148943394422531
-0.009225022047758102 0.0018349777674302459 0.02148943394422531
0.007820595987141132 -0.005225557833909988 0.02148943394422531
-0.009405754506587982 6.117532258542724e-09 0.02148943394422531
0.008689780719578266 -0.003599426243454218 0.02148943394422531
-0.009225025773048401 -0.0018349660094827414 0.02148943394422531
0.009225021116435528 -0.0018349732272326946 0.02148943394422531
-0.008689787238836288 -0.0035994211211800575 0.02148943394422531
0.009405750781297684 -2.2545385558458975e-09 0.02148943394422531
-0.007820600643754005 -0.005225554574280977 0.02148943394422531
-1.3927218267539843e-09 0.013438665308058262 0.018115701153874397
0.002621753141283989 0.013180443085730076 0.018115699291229248
0.005142755340784788 0.012415707111358643 0.018115699291229248
0.007466123905032873 0.011173841543495655 0.018115699291229248
0.009502572938799858 0.00950256921350956 0.018115699291229248
0.011173845268785954 0.007466118782758713 0.018115699291229248
0.012415709905326366 0.00514275161549449 0.018115699291229248
0.013180447742342949 0.002621751045808196 0.018115699291229248
0.013438666239380836 -3.049267949251089e-09 0.018115699291229248
0.013180447742342949 -0.0026217568665742874 0.018115699291229248
0.012415709905326366 -0.005142758134752512 0.018115699291229248
0.011173845268785954 -0.007466127630323172 0.018115699291229248
0.009502572938799858 -0.009502578526735306 0.018115699291229248
0.007466123439371586 -0.011173851788043976 0.018115699291229248
0.005142752081155777 -0.012415716424584389 0.018115699291229248
0.002621749881654978 -0.013180455192923546 0.018115699291229248
-5.771596534032142e-09 -0.013438675552606583 0.018115699291229248
-0.002621761057525873 -0.013180450536310673 0.018115699291229248
-0.005142763257026672 -0.012415713630616665 0.018115699291229248
-0.007466132286936045 -0.011173846200108528 0.018115699291229248
-0.009502582252025604 -0.009502573870122433 0.018115699291229248
-0.011173851788043976 -0.007466121576726437 0.018115699291229248
-0.012415718287229538 -0.005142751149833202 0.018115699291229248
-0.013180450536310673 -0.0026217468548566103 0.018115699291229248
-0.013438672758638859 8.912508064895519e-09 0.018115699291229248
-0.013180447742342949 0.0026217640843242407 0.018115699291229248
-0.012415709905326366 0.005142765585333109 0.018115699291229248
-0.011173839680850506 0.007466133683919907 0.018115699291229248
-0.009502564556896687 0.009502583183348179 0.018115699291229248
-0.007466111332178116 0.011173851788043976 0.018115699291229248
-0.00514273950830102 0.01241571456193924 0.018115699291229248
-0.002621735678985715 0.013180447742342949 0.018115699291229248
0.008689780719578266 0.003599422052502632 0.026860088109970093
-0.0052255610935389996 -0.007820598781108856 0.026860088109970093
0.007820595987141132 0.005225552245974541 0.026860088109970093
-0.0035994299687445164 -0.00868978351354599 0.026860088109970093
-0.0018349580932408571 0.009225021116435528 0.026860088109970093
0.006650869268923998 0.006650867406278849 0.026860088109970093
-0.0018349759047850966 -0.009225024841725826 0.026860088109970093
-0.0035994132049381733 0.008689784444868565 0.026860088109970093
0.005225555505603552 0.007820592261850834 0.026860088109970093
-4.069490522340402e-09 -0.009405756369233131 0.026860088109970093
-0.005225545726716518 0.007820598781108856 0.026860088109970093
0.0035994250793009996 0.008689776994287968 0.026860088109970093
0.001834967639297247 -0.00922502763569355 0.026860088109970093
-0.006650863215327263 0.006650874856859446 0.026860088109970093
0.0018349700840190053 0.009225018322467804 0.026860088109970093
0.0035994229838252068 -0.008689786307513714 0.026860088109970093
-0.007820592261850834 0.005225562024861574 0.026860088109970093
0.00522555410861969 -0.00782059971243143 0.026860088109970093
-0.008689779788255692 0.003599432297050953 0.026860088109970093
0.006650869268923998 -0.006650873459875584 0.026860088109970093
-0.009225022047758102 0.0018349777674302459 0.026860088109970093
0.007820595987141132 -0.005225557833909988 0.026860088109970093
-0.009405754506587982 6.117532258542724e-09 0.026860088109970093
0.008689780719578266 -0.003599426243454218 0.026860088109970093
-0.009225025773048401 -0.0018349660094827414 0.026860088109970093
0.009225021116435528 -0.0018349732272326946 0.026860088109970093
-0.008689787238836288 -0.0035994211211800575 0.026860088109970093
0.009405750781297684 -2.2545385558458975e-09 0.026860088109970093
-0.007820600643754005 -0.005225554574280977 0.026860088109970093
0.009225021116435528 0.001834968221373856 0.026860088109970093
-0.006650876719504595 -0.00665087066590786 0.026860088109970093
-1.0047072063201767e-09 0.009405747056007385 0.026860088109970093
