-0.08271493762731552 0.016453014686703682 -0.008154951967298985
-0.08433540910482407 -1.4826189165262349e-08 -0.008154951967298985
-0.0995645746588707 -1.7822632258912563e-08 0.008391622453927994
-0.09765147417783737 0.01942407339811325 0.008391622453927994
-0.09198566526174545 0.03810169920325279 0.008391622453927994
-0.08278491348028183 0.05531509965658188 0.008391622453927994
-0.07040278613567352 0.07040278613567352 0.008391622453927994
-0.055315107107162476 0.08278490602970123 0.008391622453927994
-0.11508972942829132 -2.0359136598813166e-08 0.0462481752038002
-0.07668014615774155 -2.1399626959350826e-08 -0.020998695865273476
-0.03810169920325279 0.09198563545942307 0.008391622453927994
-0.0194240752607584 0.09765143692493439 0.008391622453927994
1.090750423315967e-08 0.09956453740596771 0.008391622453927994
0.019424090161919594 0.0976514220237732 0.008391622453927994
0.03810171037912369 0.09198562055826187 0.008391622453927994
0.055315107107162476 0.08278487622737885 0.008391622453927994
0.07040278613567352 0.07040275633335114 0.008391622453927994
0.08278490602970123 0.055315081030130386 0.008391622453927994
-0.11287831515073776 0.02245287410914898 0.0462481752038002
-0.10986922681331635 0.021854329854249954 0.02642502263188362
-0.10191141068935394 0.0202714242041111 0.00815588515251875
-0.08880419284105301 0.017664233222603798 -0.007857144810259342
-0.07520674914121628 0.01495953369885683 -0.020998695865273476
-0.05367550253868103 0.010676715523004532 -0.0322679840028286
-0.05239885672926903 0.010422751307487488 -0.04130222275853157
0.09198563545942307 0.0381016843020916 0.008391622453927994
0.09765143692493439 0.019424062222242355 0.008391622453927994
0.09956453740596771 -1.779219083175576e-08 0.008391622453927994
0.0976514220237732 -0.01942409574985504 0.008391622453927994
0.09198562055826187 -0.038101714104413986 0.008391622453927994
0.08278487622737885 -0.05531509965658188 0.008391622453927994
0.07040274888277054 -0.07040277868509293 0.008391622453927994
0.05531506985425949 -0.08278488367795944 0.008391622453927994
-0.10632903128862381 0.0440429151058197 0.0462481752038002
-0.1034945473074913 0.042868826538324356 0.02642502263188362
-0.09599845111370087 0.03976384177803993 0.00815588515251875
-0.08365170657634735 0.03464965894818306 -0.007857144810259342
-0.07084321230649948 0.02934420108795166 -0.020998695865273476
-0.050561219453811646 0.020943129435181618 -0.0322679840028286
-0.049358636140823364 0.020444991067051888 -0.04130222275853157
0.0381016805768013 -0.09198562055826187 0.008391622453927994
0.019424065947532654 -0.09765142947435379 0.008391622453927994
-1.064215560120374e-08 -0.09956452250480652 0.008391622453927994
-0.019424088299274445 -0.0976514220237732 0.008391622453927994
-0.038101695477962494 -0.09198561310768127 0.008391622453927994
-0.055315084755420685 -0.08278486132621765 0.008391622453927994
-0.07040274888277054 -0.07040271908044815 0.008391622453927994
-0.08278486132621765 -0.055315058678388596 0.008391622453927994
-0.09569360315799713 0.06394039839506149 0.0462481752038002
-0.09314263612031937 0.06223589554429054 0.02642502263188362
-0.08639632165431976 0.05772816389799118 0.00815588515251875
-0.07528455555438995 0.050303518772125244 -0.007857144810259342
-0.06375720351934433 0.04260118305683136 -0.020998695865273476
-0.0455038957297802 0.03040471486747265 -0.0322679840028286
-0.04442160949110985 0.02968154288828373 -0.04130222275853157
-0.09198559820652008 -0.0381016731262207 0.008391622453927994
-0.09765138477087021 -0.019424062222242355 0.008391622453927994
-0.10529452562332153 -0.020944375544786453 0.026693133637309074
-0.0991852730512619 -0.04108387231826782 0.026693133637309074
-0.0892644003033638 -0.05964454635977745 0.026693133637309074
-0.07591313123703003 -0.07591311633586884 0.026693133637309074
-0.05964457616209984 -0.0892644003033638 0.026693133637309074
-0.04108390584588051 -0.0991852879524231 0.026693133637309074
-0.08138071000576019 0.08138071000576019 0.0462481752038002
-0.07921130210161209 0.0792112722992897 0.02642502263188362
-0.07347402721643448 0.07347401976585388 0.00815588515251875
-0.06402425467967987 0.06402423232793808 -0.007857144810259342
-0.05422104150056839 0.054221030324697495 -0.020998695865273476
-0.03869789466261864 0.03869786486029625 -0.0322679840028286
-0.03777746856212616 0.03777743875980377 -0.04130222275853157
-0.020944401621818542 -0.10529454797506332 0.026693133637309074
-1.1547547806856073e-08 -0.10735739767551422 0.026693133637309074
0.02094437927007675 -0.10529455542564392 0.026693133637309074
0.04108387976884842 -0.09918530285358429 0.026693133637309074
0.059644561260938644 -0.08926443010568619 0.026693133637309074
0.07591313123703003 -0.07591317594051361 0.026693133637309074
0.089264415204525 -0.059644587337970734 0.026693133637309074
0.09918530285358429 -0.0410839207470417 0.026693133637309074
-0.06394041329622269 0.09569358825683594 0.0462481752038002
-0.06223591789603233 0.09314260631799698 0.02642502263188362
-0.05772817134857178 0.08639631420373917 0.00815588515251875
-0.05030352994799614 0.07528454810380936 -0.007857144810259342
-0.042601194232702255 0.06375719606876373 -0.020998695865273476
-0.030404750257730484 0.0455038845539093 -0.0322679840028286
-0.02968156896531582 0.04442157968878746 -0.04130222275853157
0.10529456287622452 -0.02094441093504429 0.026693133637309074
0.10735741257667542 -1.899656609793965e-08 0.026693133637309074
0.10529457777738571 0.020944375544786453 0.026693133637309074
0.09918531775474548 0.04108388349413872 0.026693133637309074
0.08926443755626678 0.05964457988739014 0.026693133637309074
0.07591318339109421 0.07591313868761063 0.026693133637309074
0.05964459478855133 0.089264415204525 0.026693133637309074
0.041083917021751404 0.09918530285358429 0.026693133637309074
-0.044042911380529404 0.10632900893688202 0.0462481752038002
-0.042868852615356445 0.10349451750516891 0.02642502263188362
-0.03976384922862053 0.09599842876195908 0.00815588515251875
-0.03464966639876366 0.08365169912576675 -0.007857144810259342
-0.029344215989112854 0.07084320485591888 -0.020998695865273476
-0.020943162962794304 0.050561197102069855 -0.0322679840028286
-0.020445017144083977 0.04935861751437187 -0.04130222275853157
0.02094440534710884 0.10529456287622452 0.026693133637309074
1.1688799261833083e-08 0.10735741257667542 0.026693133637309074
-0.020944390445947647 0.10529457777738571 0.026693133637309074
-0.04108390584588051 0.09918531775474548 0.026693133637309074
-0.05964459478855133 0.08926443755626678 0.026693133637309074
-0.07591318339109421 0.07591318339109421 0.026693133637309074
-0.08926445245742798 0.05964459478855133 0.026693133637309074
-0.09918534755706787 0.04108390957117081 0.026693133637309074
-0.022452877834439278 0.11287827789783478 0.0462481752038002
-0.021854355931282043 0.10986919701099396 0.02642502263188362
-0.020271431654691696 0.10191138833761215 0.00815588515251875
-0.017664248123764992 0.08880417048931122 -0.007857144810259342
-0.014959542080760002 0.07520673424005508 -0.020998695865273476
-0.010676740668714046 0.05367547646164894 -0.0322679840028286
-0.010422774590551853 0.05239882692694664 -0.04130222275853157
-0.1052946224808693 0.02094438672065735 0.026693133637309074
-0.107357457280159 -1.9029389619618087e-08 0.026693133637309074
-0.10967706143856049 -1.9398381567725664e-08 0.0462481752038002
-0.10756965726613998 0.021396920084953308 0.0462481752038002
-0.10132838785648346 0.04197158291935921 0.0462481752038002
-0.09119313955307007 0.06093329191207886 0.0462481752038002
-0.077553391456604 0.07755338400602341 0.0462481752038002
-0.060933299362659454 0.09119313210248947 0.0462481752038002
1.2482337830022061e-08 0.11508967727422714 0.0462481752038002
-6.7379630763753084e-09 0.11202166229486465 0.02642502263188362
6.705091148972997e-09 0.10390795022249222 0.00815588515251875
5.557774240827484e-09 0.09054394066333771 -0.007857144810259342
9.48686462720616e-09 0.07668010890483856 -0.020998695865273476
-2.6312594769706266e-08 0.054727040231227875 -0.0322679840028286
5.222839494223308e-09 0.0534253865480423 -0.04130222275853157
-0.04197157919406891 0.10132836550474167 0.0462481752038002
-0.021396923810243607 0.107569620013237 0.0462481752038002
1.1993948945132615e-08 0.1096770241856575 0.0462481752038002
0.0213969387114048 0.1075696051120758 0.0462481752038002
0.0419715940952301 0.10132834315299988 0.0462481752038002
0.060933299362659454 0.09119310230016708 0.0462481752038002
0.07755338400602341 0.07755335420370102 0.0462481752038002
0.09119312465190887 0.060933277010917664 0.0462481752038002
0.02245289459824562 0.11287826299667358 0.0462481752038002
0.02185433730483055 0.10986919701099396 0.02642502263188362
0.02027144283056259 0.10191138088703156 0.00815588515251875
0.01766425184905529 0.08880416303873062 -0.007857144810259342
0.014959563501179218 0.07520672678947449 -0.020998695865273476
0.010676692239940166 0.05367547273635864 -0.0322679840028286
0.010422788560390472 0.05239882692694664 -0.04130222275853157
0.10132836550474167 0.041971560567617416 0.0462481752038002
0.107569620013237 0.021396910771727562 0.0462481752038002
0.1096770241856575 -1.9364849279668306e-08 0.0462481752038002
0.1075696051120758 -0.021396944299340248 0.0462481752038002
0.10132834315299988 -0.0419715940952301 0.0462481752038002
0.09119310230016708 -0.06093330308794975 0.0462481752038002
0.07755334675312042 -0.07755338400602341 0.0462481752038002
0.06093326956033707 -0.09119311720132828 0.0462481752038002
0.0440429262816906 0.10632899403572083 0.0462481752038002
0.042868830263614655 0.10349451750516891 0.02642502263188362
0.03976386412978172 0.09599841386079788 0.00815588515251875
0.034649673849344254 0.08365169167518616 -0.007857144810259342
0.0293442253023386 0.07084318995475769 -0.020998695865273476
0.020943105220794678 0.05056118965148926 -0.0322679840028286
0.020445024594664574 0.04935861751437187 -0.04130222275853157
0.04197155684232712 -0.10132835060358047 0.0462481752038002
0.02139691263437271 -0.10756959766149521 0.0462481752038002
-1.1744445416184135e-08 -0.10967700928449631 0.0462481752038002
-0.021396933123469353 -0.10756958276033401 0.0462481752038002
-0.04197157919406891 -0.10132832080125809 0.0462481752038002
-0.060933277010917664 -0.09119307994842529 0.0462481752038002
-0.07755334675312042 -0.07755333185195923 0.0462481752038002
-0.09119307994842529 -0.06093325465917587 0.0462481752038002
0.06394040584564209 0.09569355845451355 0.0462481752038002
0.06223589554429054 0.09314259886741638 0.02642502263188362
0.057728175073862076 0.08639628440141678 0.00815588515251875
0.05030352622270584 0.07528453320264816 -0.007857144810259342
0.042601197957992554 0.06375717371702194 -0.020998695865273476
0.03040468692779541 0.04550386592745781 -0.0322679840028286
0.029681574553251266 0.04442157596349716 -0.04130222275853157
-0.10132831335067749 -0.04197154939174652 0.0462481752038002
-0.10756956040859222 -0.021396910771727562 0.0462481752038002
-0.10869746655225754 -0.02162126637995243 0.05677781254053116
-0.10239078104496002 -0.04241164028644562 0.05677781254053116
-0.0921492874622345 -0.06157216802239418 0.05677781254053116
-0.07836652547121048 -0.07836651057004929 0.05677781254053116
-0.06157219037413597 -0.0921492874622345 0.05677781254053116
-0.042411670088768005 -0.10239078849554062 0.05677781254053116
0.08138071000576019 0.0813806802034378 0.0462481752038002
0.0792112872004509 0.0792112722992897 0.02642502263188362
0.07347402721643448 0.07347399741411209 0.00815588515251875
0.06402423977851868 0.06402420997619629 -0.007857144810259342
0.05422103777527809 0.0542210191488266 -0.020998695865273476
0.03869783133268356 0.038697853684425354 -0.0322679840028286
0.037777479737997055 0.037777431309223175 -0.04130222275853157
-0.02162129059433937 -0.10869750380516052 0.05677781254053116
-1.1875496142010888e-08 -0.11082702875137329 0.05677781254053116
0.02162126824259758 -0.10869751870632172 0.05677781254053116
0.042411644011735916 -0.1023908257484436 0.05677781254053116
0.061572182923555374 -0.09214931726455688 0.05677781254053116
0.07836653292179108 -0.07836656272411346 0.05677781254053116
0.09214930236339569 -0.06157221645116806 0.05677781254053116
0.102390818297863 -0.0424116887152195 0.05677781254053116
0.09569358825683594 0.0639403909444809 0.0462481752038002
0.09314261376857758 0.06223590299487114 0.02642502263188362
0.08639631420373917 0.05772814154624939 0.00815588515251875
0.07528454810380936 0.05030350387096405 -0.007857144810259342
0.06375719606876373 0.04260117560625076 -0.020998695865273476
0.04550383612513542 0.0304047092795372 -0.0322679840028286
0.044421616941690445 0.02968154102563858 -0.04130222275853157
-0.03370986506342888 0.006705285981297493 -0.04012402892112732
0.10869752615690231 -0.021621299907565117 0.05677781254053116
0.11082703620195389 -1.9555795205405957e-08 0.05677781254053116
0.10869753360748291 0.02162126824259758 0.05677781254053116
0.1023908406496048 0.042411647737026215 0.05677781254053116
0.09214933216571808 0.06157219037413597 0.05677781254053116
0.07836656272411346 0.07836654037237167 0.05677781254053116
0.06157221645116806 0.09214930236339569 0.05677781254053116
0.0424116849899292 0.102390818297863 0.05677781254053116
0.10632900893688202 0.04404289647936821 0.0462481752038002
0.10349452495574951 0.042868830263614655 0.02642502263188362
0.09599842131137848 0.03976382687687874 0.00815588515251875
0.08365169912576675 0.034649647772312164 -0.007857144810259342
0.07084320485591888 0.029344195500016212 -0.020998695865273476
0.05056115239858627 0.02094312570989132 -0.0322679840028286
0.04935864359140396 0.020444992929697037 -0.04130222275853157
0.021621298044919968 0.10869752615690231 0.05677781254053116
1.2111806668713143e-08 0.11082703620195389 0.05677781254053116
-0.021621279418468475 0.10869753360748291 0.05677781254053116
-0.042411670088768005 0.1023908406496048 0.05677781254053116
-0.06157220900058746 0.09214933216571808 0.05677781254053116
-0.07836657017469406 0.07836657017469406 0.05677781254053116
-0.09214933961629868 0.06157220900058746 0.05677781254053116
-0.10239085555076599 0.042411673814058304 0.05677781254053116
0.11287827789783478 0.022452864795923233 0.0462481752038002
0.10986920446157455 0.0218543391674757 0.02642502263188362
0.10191137343645096 0.020271407440304756 0.00815588515251875
0.08880417048931122 0.0176642294973135 -0.007857144810259342
0.07520673424005508 0.014959529973566532 -0.020998695865273476
0.05367542803287506 0.010676715523004532 -0.0322679840028286
0.052398864179849625 0.010422753170132637 -0.04130222275853157
-0.1086975708603859 0.021621273830533028 0.05677781254053116
-0.11082707345485687 -1.9589677435760677e-08 0.05677781254053116
-0.11312546581029892 -2.0015971102793628e-08 0.058031339198350906
-0.11095179617404938 0.022069666534662247 0.058031339198350906
-0.10451429337263107 0.043291229754686356 0.058031339198350906
-0.09406037628650665 0.06284912675619125 0.058031339198350906
-0.07999177277088165 0.07999177277088165 0.058031339198350906
-0.06284912675619125 0.09406036138534546 0.058031339198350906
0.11508967727422714 -2.0323950522538325e-08 0.0462481752038002
0.11202166974544525 -3.3587086445407976e-09 0.02642502263188362
0.10390792787075043 -2.2830434431853064e-08 0.00815588515251875
0.09054394066333771 -1.6153691717590846e-08 -0.007857144810259342
0.07668010145425797 -1.6205612851649676e-08 -0.020998695865273476
0.05472699925303459 2.654058528506198e-09 -0.0322679840028286
0.05342540889978409 -2.6058138757889537e-08 -0.04130222275853157
-0.04329122602939606 0.10451427102088928 0.058031339198350906
-0.022069673985242844 0.1109517514705658 0.058031339198350906
1.2353006617615847e-08 0.11312542110681534 0.058031339198350906
0.022069687023758888 0.1109517440199852 0.058031339198350906
0.04329124093055725 0.10451424866914749 0.058031339198350906
0.06284913420677185 0.09406033903360367 0.058031339198350906
0.07999177277088165 0.07999175041913986 0.058031339198350906
0.09406036138534546 0.06284910440444946 0.058031339198350906
0.11287826299667358 -0.02245290018618107 0.0462481752038002
0.10986920446157455 -0.021854342892766 0.02642502263188362
0.10191135853528976 -0.020271454006433487 0.00815588515251875
0.08880416303873062 -0.017664263024926186 -0.007857144810259342
0.07520672678947449 -0.014959563501179218 -0.020998695865273476
0.05367542803287506 -0.01067670714110136 -0.0322679840028286
0.052398860454559326 -0.010422804392874241 -0.04130222275853157
0.10451427102088928 0.043291203677654266 0.058031339198350906
0.1109517514705658 0.02206965908408165 0.058031339198350906
0.11312542110681534 -1.9981387211487345e-08 0.058031339198350906
0.1109517365694046 -0.022069692611694336 0.058031339198350906
0.1045142412185669 -0.04329124093055725 0.058031339198350906
0.09406033903360367 -0.06284913420677185 0.058031339198350906
0.07999174296855927 -0.07999177277088165 0.058031339198350906
0.06284909695386887 -0.09406036138534546 0.058031339198350906
0.10632898658514023 -0.044042930006980896 0.0462481752038002
0.10349452495574951 -0.04286883771419525 0.02642502263188362
0.09599839150905609 -0.03976386412978172 0.00815588515251875
0.08365169167518616 -0.03464968129992485 -0.007857144810259342
0.07084319740533829 -0.02934422343969345 -0.020998695865273476
0.050561148673295975 -0.020943118259310722 -0.0322679840028286
0.049358636140823364 -0.020445039495825768 -0.04130222275853157
0.04329119995236397 -0.10451426357030869 0.058031339198350906
0.02206965908408165 -0.1109517365694046 0.058031339198350906
-1.2131757820554867e-08 -0.11312540620565414 0.058031339198350906
-0.02206968143582344 -0.11095171421766281 0.058031339198350906
-0.04329122602939606 -0.1045142188668251 0.058031339198350906
-0.06284910440444946 -0.09406032413244247 0.058031339198350906
-0.07999173551797867 -0.07999171316623688 0.058031339198350906
-0.09406032413244247 -0.06284908205270767 0.058031339198350906
0.09569355100393295 -0.06394041329622269 0.0462481752038002
0.09314260631799698 -0.06223590299487114 0.02642502263188362
0.08639626204967499 -0.05772816389799118 0.00815588515251875
0.07528453320264816 -0.05030352994799614 -0.007857144810259342
0.06375718116760254 -0.042601194232702255 -0.020998695865273476
0.04550382122397423 -0.030404698103666306 -0.0322679840028286
0.044421594589948654 -0.029681578278541565 -0.04130222275853157
-0.10451420396566391 -0.04329119250178337 0.058031339198350906
-0.11095169186592102 -0.0220696572214365 0.058031339198350906
-0.012056102976202965 0.004993786569684744 -0.04012402892112732
-0.010850206017494202 0.007249864749610424 -0.04012402892112732
-0.009227341040968895 0.009227329865098 -0.04012402892112732
-0.00724987406283617 0.01085019949823618 -0.04012402892112732
-0.004993796814233065 0.012056098319590092 -0.04012402892112732
-0.002545810304582119 0.01279868558049202 -0.04012402892112732
9.667235900678861e-09 0.013049425557255745 -0.04012402892112732
0.08138067275285721 -0.0813807025551796 0.0462481752038002
0.0792112797498703 -0.0792112797498703 0.02642502263188362
0.0734739825129509 -0.07347401231527328 0.00815588515251875
0.06402422487735748 -0.06402423977851868 -0.007857144810259342
0.0542210228741169 -0.05422103404998779 -0.020998695865273476
0.03869780898094177 -0.03869783878326416 -0.0322679840028286
0.03777746483683586 -0.037777483463287354 -0.04130222275853157
0.002545829862356186 0.01279868558049202 -0.04012402892112732
0.004993815440684557 0.012056098319590092 -0.04012402892112732
0.007249892223626375 0.010850195772945881 -0.04012402892112732
0.009227362461388111 0.009227328933775425 -0.04012402892112732
0.010850227437913418 0.007249861024320126 -0.04012402892112732
0.012056122533977032 0.004993787035346031 -0.04012402892112732
0.012798711657524109 0.002545800991356373 -0.04012402892112732
0.013049453496932983 -1.8379957111847034e-08 -0.04012402892112732
0.0639403834939003 -0.09569357335567474 0.0462481752038002
0.062235910445451736 -0.09314260631799698 0.02642502263188362
0.05772813409566879 -0.08639629185199738 0.00815588515251875
0.050303518772125244 -0.07528454810380936 -0.007857144810259342
0.04260118305683136 -0.06375719606876373 -0.020998695865273476
0.03040466643869877 -0.04550384730100632 -0.0322679840028286
0.029681561514735222 -0.044421616941690445 -0.04130222275853157
0.012798711657524109 -0.002545838011428714 -0.04012402892112732
0.012056119740009308 -0.004993822891265154 -0.04012402892112732
0.010850222781300545 -0.007249897811561823 -0.04012402892112732
0.009227356873452663 -0.009227365255355835 -0.04012402892112732
0.007249890360981226 -0.010850226506590843 -0.04012402892112732
0.00499381311237812 -0.012056123465299606 -0.04012402892112732
0.0025458296295255423 -0.012798711657524109 -0.04012402892112732
1.1306421576762204e-08 -0.013049454428255558 -0.04012402892112732
0.04404288902878761 -0.10632900148630142 0.0462481752038002
0.04286884889006615 -0.10349452495574951 0.02642502263188362
0.03976382687687874 -0.09599839895963669 0.00815588515251875
0.03464965894818306 -0.08365169912576675 -0.007857144810259342
0.02934420481324196 -0.07084319740533829 -0.020998695865273476
0.020943086594343185 -0.05056116357445717 -0.0322679840028286
0.02044501341879368 -0.04935863986611366 -0.04130222275853157
-0.0025458072777837515 -0.012798711657524109 -0.04012402892112732
-0.00499379076063633 -0.012056123465299606 -0.04012402892112732
-0.007249864749610424 -0.010850225575268269 -0.04012402892112732
-0.009227329865098 -0.009227362461388111 -0.04012402892112732
-0.010850196704268456 -0.007249897345900536 -0.04012402892112732
-0.012056095525622368 -0.004993821959942579 -0.04012402892112732
-0.012798684649169445 -0.0025458368472754955 -0.04012402892112732
-0.013049419969320297 -1.8773235410662892e-08 -0.04012402892112732
0.022452864795923233 -0.11287824809551239 0.0462481752038002
0.021854355931282043 -0.10986920446157455 0.02642502263188362
0.020271416753530502 -0.10191135853528976 0.00815588515251875
0.017664240673184395 -0.08880417048931122 -0.007857144810259342
0.014959552325308323 -0.07520672678947449 -0.020998695865273476
0.010676678270101547 -0.05367543548345566 -0.0322679840028286
0.010422785766422749 -0.05239885300397873 -0.04130222275853157
-0.012798692099750042 0.002545800991356373 -0.04012402892112732
-0.03437025472521782 -2.3457252140701712e-08 -0.04012402892112732
-0.03370983898639679 -0.006705329287797213 -0.04012402892112732
-0.03175397962331772 -0.013152954168617725 -0.04012402892112732
-0.02857782319188118 -0.019095120951533318 -0.04012402892112732
-0.024303430691361427 -0.02430347166955471 -0.04012402892112732
-0.019095083698630333 -0.028577854856848717 -0.04012402892112732
-0.013152917847037315 -0.03175399824976921 -0.04012402892112732
-1.2427570084128092e-08 -0.11508966237306595 0.0462481752038002
1.3895999018131988e-08 -0.11202166974544525 0.02642502263188362
-8.419376307244875e-09 -0.10390791296958923 0.00815588515251875
-3.699258677158923e-09 -0.09054394066333771 -0.007857144810259342
4.878784043427231e-09 -0.07668010145425797 -0.020998695865273476
-2.8986665512320542e-08 -0.054726991802453995 -0.0322679840028286
1.1933774857197932e-08 -0.05342540889978409 -0.04130222275853157
-0.006705293897539377 -0.03370986878871918 -0.04012402892112732
1.1977126845863495e-08 -0.034370291978120804 -0.04012402892112732
0.006705318111926317 -0.03370986878871918 -0.04012402892112732
0.013152942061424255 -0.03175399824976921 -0.04012402892112732
0.01909511163830757 -0.028577858582139015 -0.04012402892112732
0.024303464218974113 -0.02430347353219986 -0.04012402892112732
0.02857784554362297 -0.01909511908888817 -0.04012402892112732
0.03175399824976921 -0.013152958825230598 -0.04012402892112732
-0.022452890872955322 -0.1128782257437706 0.0462481752038002
-0.021854329854249954 -0.10986919701099396 0.02642502263188362
-0.020271437242627144 -0.10191134363412857 0.00815588515251875
-0.01766424998641014 -0.08880416303873062 -0.007857144810259342
-0.014959538355469704 -0.07520671933889389 -0.020998695865273476
-0.010676736012101173 -0.05367543175816536 -0.0322679840028286
-0.010422762483358383 -0.05239885300397873 -0.04130222275853157
0.033709872514009476 -0.006705331150442362 -0.04012402892112732
0.034370288252830505 -2.242141761144012e-08 -0.04012402892112732
0.033709876239299774 0.00670528644695878 -0.04012402892112732
0.031754009425640106 0.013152915984392166 -0.04012402892112732
0.028577858582139015 0.019095085561275482 -0.04012402892112732
0.02430347353219986 0.024303434416651726 -0.04012402892112732
0.01909511722624302 0.02857782505452633 -0.04012402892112732
0.013152949512004852 0.03175398334860802 -0.04012402892112732
-0.044042911380529404 -0.10632896423339844 0.0462481752038002
-0.04286881908774376 -0.10349451750516891 0.02642502263188362
-0.039763838052749634 -0.0959983840584755 0.00815588515251875
-0.03464966639876366 -0.08365168422460556 -0.007857144810259342
-0.02934419736266136 -0.0708431750535965 -0.020998695865273476
-0.02094314619898796 -0.05056115239858627 -0.0322679840028286
-0.020444994792342186 -0.04935863986611366 -0.04130222275853157
0.006705318111926317 0.033709846436977386 -0.04012402892112732
7.659772371937379e-09 0.034370262175798416 -0.04012402892112732
-0.006705302279442549 0.033709846436977386 -0.04012402892112732
-0.013152931816875935 0.03175398334860802 -0.04012402892112732
-0.019095104187726974 0.028577828779816628 -0.04012402892112732
-0.024303458631038666 0.024303436279296875 -0.04012402892112732
-0.02857784740626812 0.019095085561275482 -0.04012402892112732
-0.03175399452447891 0.013152915053069592 -0.04012402892112732
-0.0639403834939003 -0.09569352865219116 0.0462481752038002
-0.06223588436841965 -0.09314259886741638 0.02642502263188362
-0.05772814154624939 -0.08639625459909439 0.00815588515251875
-0.050303515046834946 -0.07528452575206757 -0.007857144810259342
-0.04260117560625076 -0.06375716626644135 -0.020998695865273476
-0.030404718592762947 -0.04550383239984512 -0.0322679840028286
-0.029681537300348282 -0.04442160204052925 -0.04130222275853157
-0.11389585584402084 -0.022655287757515907 0.05677781254053116
-0.10728755593299866 -0.044439952820539474 0.05677781254053116
-0.09655626118183136 -0.0645168200135231 0.05677781254053116
-0.08211436867713928 -0.08211434632539749 0.05677781254053116
-0.0645168349146843 -0.09655626118183136 0.05677781254053116
-0.044439978897571564 -0.10728756338357925 0.05677781254053116
-0.022655313834547997 -0.11389588564634323 0.05677781254053116
-1.255324821869408e-08 -0.11612724512815475 0.05677781254053116
-0.08138067275285721 -0.08138065040111542 0.0462481752038002
-0.07921125739812851 -0.0792112797498703 0.02642502263188362
-0.0734739899635315 -0.0734739676117897 0.00815588515251875
-0.06402422487735748 -0.06402423232793808 -0.007857144810259342
-0.054221004247665405 -0.054221011698246 -0.020998695865273476
-0.03869785740971565 -0.03869782015681267 -0.0322679840028286
-0.037777431309223175 -0.037777479737997055 -0.04130222275853157
0.022655291482806206 -0.11389590799808502 0.05677781254053116
0.04443996027112007 -0.10728760808706284 0.05677781254053116
0.0645168349146843 -0.09655630588531494 0.05677781254053116
0.08211436867713928 -0.08211439847946167 0.05677781254053116
0.09655628353357315 -0.06451686471700668 0.05677781254053116
0.10728759318590164 -0.044440001249313354 0.05677781254053116
0.11389590799808502 -0.022655325010418892 0.05677781254053116
0.11612726747989655 -2.0546067958093772e-08 0.05677781254053116
-0.09569352865219116 -0.0639403685927391 0.0462481752038002
-0.09314257651567459 -0.06223590299487114 0.02642502263188362
-0.08639626204967499 -0.0577281229197979 0.00815588515251875
-0.07528451830148697 -0.050303515046834946 -0.007857144810259342
-0.06375714391469955 -0.04260117933154106 -0.020998695865273476
-0.04550386592745781 -0.03040468320250511 -0.0322679840028286
-0.044421568512916565 -0.029681578278541565 -0.04130222275853157
0.11389592289924622 0.022655289620161057 0.05677781254053116
0.10728761553764343 0.04443996399641037 0.05677781254053116
0.09655632078647614 0.06451684236526489 0.05677781254053116
0.08211440593004227 0.08211437612771988 0.05677781254053116
0.06451685726642609 0.09655628353357315 0.05677781254053116
0.044439997524023056 0.10728759318590164 0.05677781254053116
0.022655321285128593 0.11389590799808502 0.05677781254053116
1.258123472069883e-08 0.11612726747989655 0.05677781254053116
-0.10632894188165665 -0.044042881578207016 0.0462481752038002
-0.10349449515342712 -0.04286884143948555 0.02642502263188362
-0.0959983766078949 -0.03976381570100784 0.00815588515251875
-0.08365167677402496 -0.03464965894818306 -0.007857144810259342
-0.07084314525127411 -0.02934420108795166 -0.020998695865273476
-0.05056118220090866 -0.020943108946084976 -0.0322679840028286
-0.04935860633850098 -0.02044503204524517 -0.04130222275853157
-0.022655300796031952 0.11389592289924622 0.05677781254053116
-0.04443998262286186 0.10728762298822403 0.05677781254053116
-0.06451686471700668 0.09655632078647614 0.05677781254053116
-0.08211440593004227 0.08211440593004227 0.05677781254053116
-0.09655632823705673 0.06451685726642609 0.05677781254053116
-0.10728764533996582 0.04443998262286186 0.05677781254053116
-0.1138959601521492 0.022655298933386803 0.05677781254053116
-0.11612731963396072 -2.0581572002242865e-08 0.05677781254053116
-0.1128782108426094 -0.022452864795923233 0.0462481752038002
-0.10986916720867157 -0.021854354068636894 0.02642502263188362
-0.10191131383180618 -0.020271411165595055 0.00815588515251875
-0.08880414068698883 -0.017664246261119843 -0.007857144810259342
-0.07520667463541031 -0.01495954766869545 -0.020998695865273476
-0.05367545038461685 -0.010676697827875614 -0.0322679840028286
-0.052398812025785446 -0.010422798804938793 -0.04130222275853157
-0.11202163249254227 -1.315195152784554e-08 0.02642502263188362
-0.10390786826610565 1.2778061275753316e-08 0.00815588515251875
-0.09054391831159592 -1.1724412551927799e-09 -0.007857144810259342
-0.05472702533006668 8.52465387168877e-09 -0.0322679840028286
-0.05342536047101021 -2.7668233926192443e-08 -0.04130222275853157
-0.07791575789451599 0.032273754477500916 -0.008154951967298985
-0.07012233138084412 0.046854227781295776 -0.008154951967298985
-0.059634141623973846 0.05963413044810295 -0.008154951967298985
-0.046854231506586075 0.07012231647968292 -0.008154951967298985
-0.032273758202791214 0.0779157355427742 -0.008154951967298985
-0.01645301654934883 0.08271490782499313 -0.008154951967298985
8.979772481154669e-09 0.08433537930250168 -0.008154951967298985
0.016453025862574577 0.08271488547325134 -0.008154951967298985
0.03227376192808151 0.07791571319103241 -0.008154951967298985
0.04685423523187637 0.07012229412794113 -0.008154951967298985
0.05963413789868355 0.05963411554694176 -0.008154951967298985
0.07012231647968292 0.04685422405600548 -0.008154951967298985
0.0779157355427742 0.03227373957633972 -0.008154951967298985
0.08271490037441254 0.016453003510832787 -0.008154951967298985
0.08433537930250168 -1.4800403569381615e-08 -0.008154951967298985
0.08271488547325134 -0.016453029587864876 -0.008154951967298985
0.07791571319103241 -0.03227376937866211 -0.008154951967298985
0.07012229412794113 -0.04685423523187637 -0.008154951967298985
0.05963411554694176 -0.05963413044810295 -0.008154951967298985
0.04685421288013458 -0.07012230157852173 -0.008154951967298985
0.03227373585104942 -0.07791571319103241 -0.008154951967298985
0.016453005373477936 -0.08271488547325134 -0.008154951967298985
-9.27369914194287e-09 -0.08433537185192108 -0.008154951967298985
-0.016453023999929428 -0.08271488547325134 -0.008154951967298985
-0.032273754477500916 -0.07791570574045181 -0.008154951967298985
-0.04685422033071518 -0.07012227922677994 -0.008154951967298985
-0.05963410064578056 -0.05963410064578056 -0.008154951967298985
-0.07012227922677994 -0.046854205429553986 -0.008154951967298985
-0.07791569828987122 -0.03227372467517853 -0.008154951967298985
-0.08271486312150955 -0.016453001648187637 -0.008154951967298985
-0.06813382357358932 0.013552653603255749 -0.0214423555880785
-0.06946864724159241 -1.2308968067031856e-08 -0.0214423555880785
-0.0641806498169899 0.02658449113368988 -0.0214423555880785
-0.057761069387197495 0.038594700396060944 -0.0214423555880785
-0.04912175238132477 0.04912174493074417 -0.0214423555880785
-0.03859470784664154 0.0577610544860363 -0.0214423555880785
-0.02658449299633503 0.0641806349158287 -0.0214423555880785
-0.013552654534578323 0.06813380867242813 -0.0214423555880785
6.5598353415907695e-09 0.06946862488985062 -0.0214423555880785
0.01355266384780407 0.06813379377126694 -0.0214423555880785
0.026584496721625328 0.06418062001466751 -0.0214423555880785
0.03859470412135124 0.057761047035455704 -0.0214423555880785
0.04912174493074417 0.049121733754873276 -0.0214423555880785
0.057761050760746 0.038594696670770645 -0.0214423555880785
0.0641806349158287 0.026584479957818985 -0.0214423555880785
0.06813381612300873 0.013552646152675152 -0.0214423555880785
0.06946862488985062 -1.2287729056481567e-08 -0.0214423555880785
0.06813380122184753 -0.013552666641771793 -0.0214423555880785
0.06418062746524811 -0.026584504172205925 -0.0214423555880785
0.057761043310165405 -0.03859470412135124 -0.0214423555880785
0.04912172630429268 -0.04912174493074417 -0.0214423555880785
0.03859467804431915 -0.057761050760746 -0.0214423555880785
0.026584476232528687 -0.06418062001466751 -0.0214423555880785
0.013552645221352577 -0.06813379377126694 -0.0214423555880785
-8.475888435555134e-09 -0.06946860998868942 -0.0214423555880785
-0.01355266198515892 -0.06813378632068634 -0.0214423555880785
-0.02658449113368988 -0.06418062001466751 -0.0214423555880785
-0.03859469294548035 -0.05776102840900421 -0.0214423555880785
-0.04912172257900238 -0.04912171512842178 -0.0214423555880785
-0.05776102840900421 -0.038594674319028854 -0.0214423555880785
-0.06418061256408691 -0.02658446878194809 -0.0214423555880785
-0.06813377887010574 -0.013552643358707428 -0.0214423555880785
-0.0430968701839447 0.00857249740511179 -0.028211399912834167
-0.043941181153059006 -4.88358464778571e-09 -0.028211399912834167
-0.040596358478069305 0.016815559938549995 -0.028211399912834167
-0.036535751074552536 0.024412406608462334 -0.028211399912834167
-0.03107110969722271 0.031071102246642113 -0.028211399912834167
-0.024412410333752632 0.03653574734926224 -0.028211399912834167
-0.016815559938549995 0.04059634357690811 -0.028211399912834167
-0.008572496473789215 0.04309685155749321 -0.028211399912834167
3.2054161547279136e-09 0.04394116997718811 -0.028211399912834167
0.008572500199079514 0.04309684410691261 -0.028211399912834167
0.016815558075904846 0.040596332401037216 -0.028211399912834167
0.024412406608462334 0.03653574362397194 -0.028211399912834167
0.031071098521351814 0.031071096658706665 -0.028211399912834167
0.03653574362397194 0.024412401020526886 -0.028211399912834167
0.040596336126327515 0.0168155524879694 -0.028211399912834167
0.04309684410691261 0.008572493679821491 -0.028211399912834167
0.04394116252660751 -4.870151393276956e-09 -0.028211399912834167
0.043096836656332016 -0.008572499267756939 -0.028211399912834167
0.040596332401037216 -0.016815558075904846 -0.028211399912834167
0.03653573617339134 -0.024412404745817184 -0.028211399912834167
0.031071089208126068 -0.031071098521351814 -0.028211399912834167
0.02441238984465599 -0.03653573989868164 -0.028211399912834167
0.016815543174743652 -0.040596332401037216 -0.028211399912834167
0.008572489023208618 -0.043096836656332016 -0.028211399912834167
-6.3051741605590905e-09 -0.043941155076026917 -0.028211399912834167
-0.008572498336434364 -0.04309683293104172 -0.028211399912834167
-0.016815556213259697 -0.04059632867574692 -0.028211399912834167
-0.024412399157881737 -0.03653572499752045 -0.028211399912834167
-0.031071089208126068 -0.031071078032255173 -0.028211399912834167
-0.036535732448101044 -0.02441238798201084 -0.028211399912834167
-0.04059632495045662 -0.016815535724163055 -0.028211399912834167
-0.04309682920575142 -0.00857248529791832 -0.028211399912834167
-0.02881477400660515 0.005731613375246525 -0.028211399912834167
-0.029379289597272873 -1.5664582964092233e-09 -0.028211399912834167
-0.027142921462655067 0.01124296523630619 -0.028211399912834167
-0.024427982047200203 0.01632225513458252 -0.028211399912834167
-0.020774295553565025 0.020774293690919876 -0.028211399912834167
-0.01632225513458252 0.024427980184555054 -0.028211399912834167
-0.011242960579693317 0.027142910286784172 -0.028211399912834167
-0.0057316129095852375 0.02881476655602455 -0.028211399912834167
1.7025871823506122e-09 0.029379285871982574 -0.028211399912834167
0.0057316129095852375 0.028814759105443954 -0.028211399912834167
0.011242963373661041 0.027142908424139023 -0.028211399912834167
0.01632225140929222 0.024427976459264755 -0.028211399912834167
0.02077428624033928 0.02077428065240383 -0.028211399912834167
0.024427970871329308 0.01632225327193737 -0.028211399912834167
0.027142902836203575 0.011242959648370743 -0.028211399912834167
0.028814757242798805 0.005731611046940088 -0.028211399912834167
0.02937927469611168 -1.5574748157831664e-09 -0.028211399912834167
0.02881474979221821 -0.005731611512601376 -0.028211399912834167
0.027142900973558426 -0.011242961511015892 -0.028211399912834167
0.02442796714603901 -0.016322245821356773 -0.028211399912834167
0.020774273201823235 -0.02077428437769413 -0.028211399912834167
0.016322240233421326 -0.02442796714603901 -0.028211399912834167
0.011242955923080444 -0.027142899110913277 -0.028211399912834167
0.005731605924665928 -0.02881474792957306 -0.028211399912834167
-4.65623628542744e-09 -0.029379261657595634 -0.028211399912834167
-0.005731615703552961 -0.02881474420428276 -0.028211399912834167
-0.011242960579693317 -0.027142895385622978 -0.028211399912834167
-0.016322247684001923 -0.024427955970168114 -0.028211399912834167
-0.020774278789758682 -0.020774269476532936 -0.028211399912834167
-0.02442796342074871 -0.016322236508131027 -0.028211399912834167
-0.027142899110913277 -0.011242947541177273 -0.028211399912834167
-0.02881474606692791 -0.005731603130698204 -0.028211399912834167
-0.011654338799417019 0.0023181953001767397 -0.028211399912834167
-0.011882660910487175 2.9068469853399392e-09 -0.028211399912834167
-0.010978144593536854 0.004547300282865763 -0.028211399912834167
-0.009880071505904198 0.0066016544587910175 -0.028211399912834167
-0.008402308449149132 0.00840231217443943 -0.028211399912834167
-0.006601652130484581 0.009880071505904198 -0.028211399912834167
-0.004547296557575464 0.010978145524859428 -0.028211399912834167
-0.0023181920405477285 0.011654337868094444 -0.028211399912834167
-4.5322526287527864e-10 0.01188266184180975 -0.028211399912834167
0.0023181901779025793 0.01165433693677187 -0.028211399912834167
0.004547295160591602 0.01097814366221428 -0.028211399912834167
0.006601650267839432 0.009880070574581623 -0.028211399912834167
0.008402307517826557 0.008402310311794281 -0.028211399912834167
0.009880064986646175 0.006601652596145868 -0.028211399912834167
0.010978139005601406 0.004547297954559326 -0.028211399912834167
0.011654331348836422 0.0023181941360235214 -0.028211399912834167
0.011882653459906578 2.9104811893887472e-09 -0.028211399912834167
0.011654328554868698 -0.002318187616765499 -0.028211399912834167
0.010978139005601406 -0.0045472909696400166 -0.028211399912834167
0.0098800640553236 -0.006601644679903984 -0.028211399912834167
0.008402302861213684 -0.008402303792536259 -0.028211399912834167
0.006601645145565271 -0.009880060330033302 -0.028211399912834167
0.0045472923666238785 -0.010978133417665958 -0.028211399912834167
0.002318187151104212 -0.0116543248295784 -0.028211399912834167
-3.0250950633359253e-09 -0.011882646940648556 -0.028211399912834167
-0.0023181934375315905 -0.011654323898255825 -0.028211399912834167
-0.00454729562625289 -0.01097813155502081 -0.028211399912834167
-0.006601649336516857 -0.00988005567342043 -0.028211399912834167
-0.008402303792536259 -0.008402296341955662 -0.028211399912834167
-0.009880063124001026 -0.006601641420274973 -0.028211399912834167
-0.010978138074278831 -0.004547285847365856 -0.028211399912834167
-0.011654327623546124 -0.0023181838914752007 -0.028211399912834167
-0.05367550253868103 0.010676715523004532 -0.031133422628045082
-0.050561219453811646 0.020943129435181618 -0.031133422628045082
-0.0455038957297802 0.03040471486747265 -0.031133422628045082
-0.03869789466261864 0.03869786486029625 -0.031133422628045082
-0.030404750257730484 0.0455038845539093 -0.031133422628045082
-0.020943162962794304 0.050561197102069855 -0.031133422628045082
-0.010676740668714046 0.05367547646164894 -0.031133422628045082
-2.6312594769706266e-08 0.054727040231227875 -0.031133422628045082
0.010676692239940166 0.05367547273635864 -0.031133422628045082
0.020943105220794678 0.05056118965148926 -0.031133422628045082
0.03040468692779541 0.04550386592745781 -0.031133422628045082
0.03869783133268356 0.038697853684425354 -0.031133422628045082
0.04550383612513542 0.0304047092795372 -0.031133422628045082
0.05056115239858627 0.02094312570989132 -0.031133422628045082
0.05367542803287506 0.010676715523004532 -0.031133422628045082
0.05472699925303459 2.654058528506198e-09 -0.031133422628045082
0.05367542803287506 -0.01067670714110136 -0.031133422628045082
0.050561148673295975 -0.020943118259310722 -0.031133422628045082
0.04550382122397423 -0.030404698103666306 -0.031133422628045082
0.03869780898094177 -0.03869783878326416 -0.031133422628045082
0.03040466643869877 -0.04550384730100632 -0.031133422628045082
0.020943086594343185 -0.05056116357445717 -0.031133422628045082
0.010676678270101547 -0.05367543548345566 -0.031133422628045082
-2.8986665512320542e-08 -0.054726991802453995 -0.031133422628045082
-0.010676736012101173 -0.05367543175816536 -0.031133422628045082
-0.02094314619898796 -0.05056115239858627 -0.031133422628045082
-0.030404718592762947 -0.04550383239984512 -0.031133422628045082
-0.03869785740971565 -0.03869782015681267 -0.031133422628045082
-0.04550386592745781 -0.03040468320250511 -0.031133422628045082
-0.05056118220090866 -0.020943108946084976 -0.031133422628045082
-0.05367545038461685 -0.010676697827875614 -0.031133422628045082
-0.05472702533006668 8.52465387168877e-09 -0.031133422628045082
