0.0062903123907744884 -0.016829917207360268 -0.041677314788103104
0.006290310528129339 0.029982278123497963 -0.041677314788103104
0.006290317513048649 -0.004455576650798321 0.03192596137523651
0.0062903170473873615 0.017607934772968292 0.03192596137523651
0.0062903156504035 -0.016829917207360268 0.007088360842317343
0.006290311925113201 0.006576179526746273 -0.041677314788103104
0.00629031378775835 0.029982278123497963 0.007088360842317343
0.006290317513048649 0.006576179526746273 0.03192596137523651
0.006290315184742212 0.006576179526746273 0.007088360842317343
0.00629031378775835 -0.016829917207360268 -0.016745900735259056
0.006290311459451914 0.01827922649681568 -0.041677314788103104
0.00629031378775835 0.024568499997258186 0.019114818423986435
0.006290317513048649 0.0010603016708046198 0.03192596137523651
0.0062903156504035 -0.011416141875088215 0.019114818423986435
0.006290311459451914 -0.005126869771629572 -0.041677314788103104
0.0062903123907744884 0.029982278123497963 -0.016745900735259056
0.0062903170473873615 0.012092056684195995 0.03192596137523651
0.006290315184742212 0.006576179526746273 0.019114818423986435
0.00629031378775835 0.006576179526746273 -0.016745900735259056
0.006290314719080925 -0.005126869771629572 0.007088360842317343
0.006290314719080925 0.01827922649681568 0.007088360842317343
0.006290313322097063 0.01827922649681568 -0.016745900735259056
0.006290314719080925 -0.005126869771629572 -0.016745900735259056
0.0062903156504035 -0.0024199814070016146 0.019114818423986435
0.006290314719080925 0.015572340227663517 0.019114818423986435
-0.020019490271806717 -0.015418719500303268 -0.04158734530210495
-0.020019495859742165 0.028571078553795815 -0.04158734530210495
-0.02001948654651642 -0.005058281123638153 0.020736120641231537
-0.020019488409161568 0.01821063458919525 0.020736120641231537
-0.020019488409161568 -0.015418719500303268 -0.001978725427761674
-0.020019492134451866 0.006576179061084986 -0.04158734530210495
-0.020019488409161568 0.028571078553795815 -0.001978725427761674
-0.02001948654651642 0.006576176267117262 0.020736120641231537
-0.020019488409161568 0.006576179061084986 -0.001978725427761674
-0.020019488409161568 -0.01541871763765812 -0.020446786656975746
-0.020019492134451866 0.017573628574609756 -0.04158734530210495
-0.020019488409161568 0.023311197757720947 0.009896180592477322
-0.02001948654651642 0.0007589478045701981 0.020736120641231537
-0.020019488409161568 -0.0101588424295187 0.009896180592477322
-0.020019492134451866 -0.004421270452439785 -0.04158734530210495
-0.020019488409161568 0.028571078553795815 -0.020446786656975746
-0.02001948654651642 0.01239340752363205 0.020736120641231537
-0.020019488409161568 0.006576179061084986 0.009896180592477322
-0.020019488409161568 0.0065761771984398365 -0.020446786656975746
-0.020019488409161568 -0.004421270452439785 -0.001978725427761674
-0.020019488409161568 0.017573628574609756 -0.001978725427761674
-0.020019488409161568 0.017573628574609756 -0.020446786656975746
-0.020019488409161568 -0.004421271849423647 -0.020446786656975746
-0.020019488409161568 -0.0017913319170475006 0.009896180592477322
-0.020019488409161568 0.014943688176572323 0.009896180592477322
-0.013671276159584522 0.006576179061084986 0.03171026334166527
-0.013671276159584522 0.0019090077839791775 0.03171026334166527
-0.013671276159584522 0.011243348941206932 0.03171026334166527
-0.00915699452161789 -0.0009465860202908516 0.03171026334166527
-0.00915699452161789 0.014098944142460823 0.03171026334166527
-0.012621406465768814 0.006576225161552429 0.03171725571155548
-0.0067961374297738075 0.006576226092875004 0.053111620247364044
-0.01244105864316225 0.0084908502176404 0.03171993046998978
-0.00662224180996418 0.008490851148962975 0.053062982857227325
-0.011906929314136505 0.010331894271075726 0.03172783926129341
-0.006107224151492119 0.0103318952023983 0.0529189258813858
-0.011039539240300655 0.012028614059090614 0.031740687787532806
-0.00527087040245533 0.012028614059090614 0.05268501490354538
-0.009872241877019405 0.013515801168978214 0.03175798058509827
-0.004145338200032711 0.013515802100300789 0.052370212972164154
-0.008449891582131386 0.014736302196979523 0.03177905082702637
-0.0027738783974200487 0.014736304059624672 0.051986634731292725
-0.006827130913734436 0.01564321666955948 0.03180309385061264
-0.0012091797543689609 0.01564321480691433 0.05154900997877121
-0.005066340323537588 0.0162016861140728 0.031829170882701874
0.0004886109381914139 0.0162016861140728 0.051074154675006866
-0.0032351778354495764 0.01639026775956154 0.03185630217194557
0.0022542551159858704 0.01639026775956154 0.050580330193042755
-0.0014040154637768865 0.0162016861140728 0.03188343346118927
0.0040199002251029015 0.0162016861140728 0.05008649826049805
0.00035677675623446703 0.01564321666955948 0.0319095142185688
0.005717691034078598 0.01564321480691433 0.049611642956733704
0.001979533117264509 0.014736302196979523 0.03193354979157448
0.007282386999577284 0.014736304059624672 0.04917401820421219
0.003401895286515355 0.013515801168978214 0.03195462003350258
0.008653855882585049 0.013515802100300789 0.048790425062179565
0.0045691924169659615 0.012028614059090614 0.031971920281648636
0.009779389947652817 0.012028614059090614 0.048475638031959534
0.00543656712397933 0.010331894271075726 0.03198476508259773
0.010615729726850986 0.0103318952023983 0.048241712152957916
0.005970698315650225 0.008490846492350101 0.03199267387390137
0.01113075204193592 0.008490847423672676 0.048097677528858185
0.006151058245450258 0.00657622329890728 0.03199535235762596
0.011304658837616444 0.006576224230229855 0.04804903268814087
0.005970698315650225 0.004661597777158022 0.03199267387390137
0.01113075204193592 0.004661599174141884 0.048097677528858185
0.00543656712397933 0.002820549765601754 0.03198476508259773
0.010615729726850986 0.002820551162585616 0.048241712152957916
0.0045691803097724915 0.0011238320730626583 0.031971920281648636
0.009779378771781921 0.001123833004385233 0.048475638031959534
0.0034018848091363907 -0.0003633573651313782 0.03195462375879288
0.008653848432004452 -0.00036335643380880356 0.04879043996334076
0.001979534048587084 -0.0015838593244552612 0.03193354979157448
0.0072823879308998585 -0.0015838583931326866 0.04917401820421219
0.00035677285632118583 -0.002490771934390068 0.0319095104932785
0.005717688240110874 -0.002490770071744919 0.049611642956733704
-0.0014040230307728052 -0.003049246035516262 0.03188342973589897
0.004019893240183592 -0.003049244172871113 0.05008649826049805
-0.003235185518860817 -0.0032378174364566803 0.03185630217194557
0.002254248596727848 -0.003237815573811531 0.050580330193042755
-0.005066349171102047 -0.0030492357909679413 0.031829170882701874
0.0004886022070422769 -0.0030492348596453667 0.051074154675006866
-0.0068271406926214695 -0.0024907616898417473 0.03180309012532234
-0.001209187088534236 -0.0024907588958740234 0.05154900997877121
-0.008449902758002281 -0.0015838490799069405 0.031779054552316666
-0.002773888176307082 -0.0015838481485843658 0.051986634731292725
-0.0098722530528903 -0.00036333734169602394 0.031757984310388565
-0.004145348910242319 -0.000363335944712162 0.05237022042274475
-0.011039545759558678 0.0011238530278205872 0.031740687787532806
-0.005270877853035927 0.0011238539591431618 0.05268501490354538
-0.011906929314136505 0.0028205697890371084 0.03172783926129341
-0.006107224151492119 0.0028205702546983957 0.0529189258813858
-0.01244105864316225 0.004661615937948227 0.03171993046998978
-0.00662224180996418 0.004661615937948227 0.053062982857227325
