-0.042312487959861755 -0.037282995879650116 0.042547520250082016
-0.03882547467947006 -0.04108969494700432 0.042968135327100754
-0.04029765725135803 -0.040297605097293854 0.042547520250082016
-0.035369012504816055 -0.04227273166179657 0.04306527599692345
-0.037283048033714294 -0.042312439531087875 0.042547520250082016
-0.04424662888050079 -0.05397900938987732 -0.016615860164165497
-0.03648580238223076 -0.05432786047458649 -0.016615860164165497
-0.04422378912568092 -0.05395616963505745 -0.04241781681776047
-0.036467116326093674 -0.05430501699447632 -0.04241781681776047
-0.04406078904867172 -0.053790051490068436 0.009436191990971565
-0.036327995359897614 -0.05413993448019028 0.009436191990971565
-0.04713605344295502 -0.05331350117921829 -0.016615860164165497
-0.046947088092565536 -0.05312453955411911 0.009436191990971565
-0.04711320623755455 -0.053290657699108124 -0.04241781681776047
-0.04910869896411896 -0.052257608622312546 -0.016615860164165497
-0.04908585920929909 -0.052234772592782974 -0.04241781681776047
-0.04891974851489067 -0.05206865072250366 0.009436191990971565
-0.0508384071290493 -0.05083834007382393 -0.016615860164165497
-0.05065048485994339 -0.05064937844872475 0.009436191990971565
-0.05081556737422943 -0.05081549659371376 -0.04241781681776047
-0.05225767567753792 -0.049108631908893585 -0.016615860164165497
-0.05223483964800835 -0.049085792154073715 -0.04241781681776047
-0.052068717777729034 -0.048919677734375 0.009436191990971565
-0.04596952348947525 -0.04288563132286072 -0.06243084371089935
-0.04458082839846611 -0.04457873851060867 -0.06243084371089935
-0.04209207370877266 -0.039110127836465836 -0.06539682298898697
-0.04074936732649803 -0.04074732959270477 -0.06539682298898697
-0.04987388476729393 -0.046723805367946625 -0.05939355492591858
-0.048455651849508286 -0.048454541712999344 -0.05939355492591858
-0.043558649718761444 -0.03448422998189926 0.0407162606716156
-0.043301068246364594 -0.03394463285803795 0.03765316307544708
-0.04296509549021721 -0.03705799579620361 0.04065735638141632
-0.04264744743704796 -0.036589670926332474 0.03765316307544708
-0.04192865639925003 -0.03894149139523506 0.04069869592785835
-0.04161304607987404 -0.03852406516671181 0.03765316307544708
-0.04059901461005211 -0.04059896618127823 0.04065735638141632
-0.04022129997611046 -0.04022124782204628 0.03765316307544708
-0.03894154354929924 -0.04192860797047615 0.04069869592785835
-0.038524117320775986 -0.04161300137639046 0.03765316307544708
-0.03705906867980957 -0.04296504333615303 0.04065735638141632
-0.036589719355106354 -0.04264739528298378 0.03765316307544708
-0.03448427841067314 -0.043558601289987564 0.0407162606716156
-0.03394468501210213 -0.043301016092300415 0.03765316307544708
-0.035970836877822876 -0.04553917422890663 0.02695494331419468
-0.039017029106616974 -0.04864557832479477 0.026098381727933884
-0.03218115121126175 -0.04136981442570686 0.027590828016400337
-0.03869516775012016 -0.04487261921167374 0.02695494331419468
-0.03476081043481827 -0.04072615131735802 0.027590828016400337
-0.041802626103162766 -0.04798007383942604 0.026098381727933884
-0.04066886380314827 -0.04381776973605156 0.02695494331419468
-0.043775271624326706 -0.046924181282520294 0.026098381727933884
-0.03666573017835617 -0.0397065170109272 0.027590828016400337
-0.042398568242788315 -0.042398497462272644 0.02695494331419468
-0.038337044417858124 -0.03833698108792305 0.027590828016400337
-0.04550601541996002 -0.04550491273403168 0.026098381727933884
-0.04381783679127693 -0.040667761117219925 0.02695494331419468
-0.046924248337745667 -0.043775204569101334 0.026098381727933884
-0.03970658779144287 -0.0366656593978405 0.027590828016400337
-0.04487372562289238 -0.03869510069489479 0.02695494331419468
-0.04072621837258339 -0.034760747104883194 0.027590828016400337
-0.047980137169361115 -0.041801512241363525 0.026098381727933884
-0.045539237558841705 -0.035970769822597504 0.02695494331419468
-0.04864564538002014 -0.0390169583261013 0.026098381727933884
-0.041369881480932236 -0.03218008205294609 0.027590828016400337
-0.0508093386888504 -0.041850313544273376 -0.016185946762561798
-0.05065567418932915 -0.041692499071359634 -0.04112497717142105
-0.050770919770002365 -0.04185861349105835 0.008606336079537868
-0.042886700481176376 -0.04596743360161781 -0.06243084371089935
-0.040955353528261185 -0.047000810503959656 -0.06243084371089935
-0.03911216929554939 -0.0420900359749794 -0.06539682298898697
-0.03724236786365509 -0.043089330196380615 -0.06539682298898697
-0.04672490805387497 -0.04987381398677826 -0.05939355492591858
-0.044752251356840134 -0.05092865973711014 -0.05939355492591858
-0.042724791914224625 -0.0332893505692482 0.03640579804778099
-0.041248567402362823 -0.031931836158037186 0.03577442467212677
-0.04206421226263046 -0.0359419621527195 0.03640579804778099
-0.04059595987200737 -0.034537170082330704 0.03577442467212677
-0.04101880267262459 -0.03789694979786873 0.03640579804778099
-0.039560552686452866 -0.036472588777542114 0.03577442467212677
-0.039612241089344025 -0.039612192660570145 0.03640579804778099
-0.03816879913210869 -0.03816874697804451 0.03577442467212677
-0.037898022681474686 -0.041018757969141006 0.03640579804778099
-0.036472633481025696 -0.039560504257678986 0.03577442467212677
-0.03594200685620308 -0.04206416383385658 0.03640579804778099
-0.034538235515356064 -0.04059591144323349 0.03577442467212677
-0.03328939527273178 -0.042724743485450745 0.03640579804778099
-0.031932905316352844 -0.041248518973588943 0.03577442467212677
-0.04095739126205444 -0.03164676949381828 0.03194853663444519
-0.04030478745698929 -0.034245990216732025 0.03194853663444519
-0.03926936909556389 -0.036181408911943436 0.03194853663444519
-0.03787762299180031 -0.03787757083773613 0.03194853663444519
-0.036181457340717316 -0.03926932066679001 0.03194853663444519
-0.034246038645505905 -0.04030473530292511 0.03194853663444519
-0.03164681792259216 -0.040957339107990265 0.03194853663444519
-0.0206360574811697 -0.054456599056720734 -0.016615860164165497
-0.020624639466404915 -0.05443376302719116 -0.04241781681776047
-3.724250419168129e-08 -0.054474249482154846 -0.016615860164165497
-3.724250419168129e-08 -0.05445140600204468 -0.04241781681776047
-0.020544692873954773 -0.05426867678761482 0.009436191990971565
-3.724250419168129e-08 -0.054285287857055664 0.009436191990971565
-0.0423736535012722 -0.03889236971735954 0.023567479103803635
-0.041699834167957306 -0.036889612674713135 0.023624319583177567
-0.04218365624547005 -0.04066983237862587 0.023563344031572342
-0.04125338792800903 -0.03907405957579613 0.023626385256648064
-0.01672605238854885 -0.046754948794841766 -0.05992164462804794
-3.724250419168129e-08 -0.04678713530302048 -0.05992164462804794
-0.018044617027044296 -0.0495280884206295 -0.05695049464702606
-3.724250419168129e-08 -0.04956026375293732 -0.05695049464702606
-0.015093444846570492 -0.042922280728816986 -0.06268197298049927
9.820987543207593e-07 -0.042952824383974075 -0.06268197298049927
-0.01588960364460945 -0.03827565163373947 0.03576606884598732
-0.0160958431661129 -0.03899723291397095 0.02978450618684292
-3.600623443844597e-08 -0.038297027349472046 0.03576606884598732
-3.724250419168129e-08 -0.03900554031133652 0.02978450618684292
-0.045881856232881546 -0.03703080862760544 -0.05992164462804794
-0.042080357670784 -0.03359847515821457 -0.06268197298049927
-0.044684771448373795 -0.04040612280368805 -0.05992164462804794
-0.040927860885858536 -0.03681161627173424 -0.06268197298049927
-0.046519335359334946 -0.029893962666392326 -0.05992164462804794
-0.0426952950656414 -0.027026604861021042 -0.06268197298049927
-0.04865187034010887 -0.039728157222270966 -0.05695049464702606
-0.04929143190383911 -0.03219054639339447 -0.05695049464702606
-0.047452714294195175 -0.04316368326544762 -0.05695049464702606
-0.04185038059949875 -0.050809264183044434 -0.016185946762561798
-0.04169360548257828 -0.050655607134103775 -0.04112497717142105
-0.03400026261806488 -0.05144882574677467 -0.016185946762561798
-0.03386632353067398 -0.051294129341840744 -0.04112497717142105
-0.04185868427157402 -0.050770848989486694 0.008606336079537868
-0.034010645002126694 -0.05140729248523712 0.008606336079537868
-0.042826324701309204 -0.04282417893409729 -0.05992164462804794
-0.03914108872413635 -0.03913900628685951 -0.06268197298049927
-0.04558907821774483 -0.045587968081235886 -0.05695049464702606
-0.045112524181604385 -0.045112453401088715 0.023541642352938652
-0.045694973319768906 -0.04569490626454353 0.023483771830797195
-0.043924782425165176 -0.04554540291428566 0.023546813055872917
-0.04419887438416481 -0.04668434336781502 0.023483771830797195
-0.04232589155435562 -0.046333421021699905 0.023542677983641624
-0.04166453704237938 -0.04743914678692818 0.023485839366912842
-0.019084932282567024 -0.05168553814291954 -0.016185946762561798
-0.019007064402103424 -0.05153187736868858 -0.04112497717142105
-0.019091160967946053 -0.051645051687955856 0.008606336079537868
-3.724250419168129e-08 -0.05171772465109825 -0.016185946762561798
-3.724250419168129e-08 -0.051676195114851 0.008606336079537868
-3.724250419168129e-08 -0.05156406760215759 -0.04112497717142105
-0.04122951626777649 -0.05090271681547165 0.025534121319651604
-0.03391408920288086 -0.05125155672430992 0.025534121319651604
-0.04405871406197548 -0.05023616552352905 0.025534121319651604
-0.042645666748285294 -0.05234689638018608 0.024525482207536697
-0.045502904802560806 -0.051681388169527054 0.024525482207536697
-0.03512156009674072 -0.05269574746489525 0.024525482207536697
-0.04355309158563614 -0.05327301099896431 0.021634943783283234
-0.03589504584670067 -0.05362185463309288 0.021634943783283234
-0.04642901197075844 -0.05260645970702171 0.021634943783283234
-0.04603136330842972 -0.04918026924133301 0.025534121319651604
-0.047762103378772736 -0.04776203632354736 0.025534121319651604
-0.047476593405008316 -0.050625499337911606 0.024525482207536697
-0.04920629411935806 -0.04920623078942299 0.024525482207536697
-0.048401668667793274 -0.05155056715011597 0.021634943783283234
-0.05013240501284599 -0.05013233795762062 0.021634943783283234
-0.04918034002184868 -0.04603129252791405 0.025534121319651604
-0.05023622885346413 -0.04405864700675011 0.025534121319651604
-0.05062556639313698 -0.047476526349782944 0.024525482207536697
-0.051681455224752426 -0.045502834022045135 0.024525482207536697
-0.05155168101191521 -0.048401594161987305 0.021634943783283234
-0.052606526762247086 -0.04642894119024277 0.021634943783283234
-0.05090278014540672 -0.04122944548726082 0.025534121319651604
-0.05125162750482559 -0.03391297906637192 0.025534121319651604
-0.05234696716070175 -0.04264560341835022 0.024525482207536697
-0.05269581452012062 -0.03512045741081238 0.024525482207536697
-0.05327307805418968 -0.043553028255701065 0.021634943783283234
-0.05362192168831825 -0.035894975066185 0.021634943783283234
-0.01915760710835457 -0.051380302757024765 0.025534121319651604
-3.724250419168129e-08 -0.05139794573187828 0.025534121319651604
-0.01985115185379982 -0.052824486047029495 0.024525482207536697
-3.724250419168129e-08 -0.052842140197753906 0.024525482207536697
-0.020296553149819374 -0.053750596940517426 0.021634943783283234
-3.724250419168129e-08 -0.05376824364066124 0.021634943783283234
-0.05138036981225014 -0.019157538190484047 0.025534121319651604
-0.05139801651239395 2.8607306745698224e-08 0.025534121319651604
-0.052824556827545166 -0.019851084798574448 0.024525482207536697
-0.05284220352768898 2.8607306745698224e-08 0.024525482207536697
-0.053750667721033096 -0.020296486094594002 0.021634943783283234
-0.05376831069588661 2.8607306745698224e-08 0.021634943783283234
-0.03822785243391991 -0.04765341803431511 -0.06243084371089935
-0.03138109669089317 -0.04799550026655197 -0.06243084371089935
-0.03464679792523384 -0.04372124373912811 -0.06539682298898697
-0.028363538905978203 -0.04405267909169197 -0.06539682298898697
-0.041909560561180115 -0.051595211029052734 -0.05939355492591858
-0.034493423998355865 -0.0519440621137619 -0.05939355492591858
-0.04409608617424965 -0.05382638797163963 -0.054673828184604645
-0.036358099430799484 -0.054175231605768204 -0.054673828184604645
-0.04698238521814346 -0.05315983667969704 -0.054673828184604645
-0.043867677450180054 -0.05359278619289398 -0.05686885863542557
-0.04674878343939781 -0.052926234900951385 -0.05686885863542557
-0.036162909120321274 -0.05394162982702255 -0.05686885863542557
-0.04338696971535683 -0.05310169607400894 -0.05770181119441986
-0.035752806812524796 -0.05345158278942108 -0.05770181119441986
-0.04625873640179634 -0.052436187863349915 -0.05770181119441986
-0.0489550456404686 -0.05210395157337189 -0.054673828184604645
-0.050685785710811615 -0.05068572238087654 -0.054673828184604645
-0.04872247204184532 -0.05187138915061951 -0.05686885863542557
-0.05045218765735626 -0.05045211687684059 -0.05686885863542557
-0.04823139309883118 -0.051380302757024765 -0.05770181119441986
-0.049962133169174194 -0.04996103048324585 -0.05770181119441986
-0.05210401862859726 -0.048954978585243225 -0.054673828184604645
-0.05315990373492241 -0.04698232188820839 -0.054673828184604645
-0.05187145248055458 -0.04872136935591698 -0.05686885863542557
-0.05292733758687973 -0.04674872010946274 -0.05686885863542557
-0.05138036981225014 -0.048231326043605804 -0.05770181119441986
-0.05243625119328499 -0.0462576299905777 -0.05770181119441986
-0.053826455026865005 -0.044096022844314575 -0.054673828184604645
-0.05417530611157417 -0.03635699674487114 -0.054673828184604645
-0.053592853248119354 -0.04386657476425171 -0.05686885863542557
-0.053941696882247925 -0.0361628420650959 -0.05686885863542557
-0.053102802485227585 -0.04338586702942848 -0.05770181119441986
-0.05345165356993675 -0.03575170040130615 -0.05770181119441986
-0.020562343299388885 -0.054303981363773346 -0.054673828184604645
-3.724250419168129e-08 -0.05432162806391716 -0.054673828184604645
-0.02045021392405033 -0.0540703721344471 -0.05686885863542557
-3.724250419168129e-08 -0.05408802255988121 -0.05686885863542557
-0.020214535295963287 -0.053580328822135925 -0.05770181119441986
-3.724250419168129e-08 -0.05359693989157677 -0.05770181119441986
-0.019490882754325867 -0.05207280442118645 -0.05939355492591858
-3.724250419168129e-08 -0.05209045484662056 -0.05939355492591858
-0.05430404841899872 -0.020562276244163513 -0.054673828184604645
-0.05432169511914253 2.8607306745698224e-08 -0.054673828184604645
-0.05407043918967247 -0.02045014500617981 -0.05686885863542557
-0.05408808961510658 2.8607306745698224e-08 -0.05686885863542557
-0.053580399602651596 -0.020214468240737915 -0.05770181119441986
-0.05359804630279541 2.8607306745698224e-08 -0.05770181119441986
-0.017707940191030502 -0.04812072962522507 -0.06243084371089935
-3.600623443844597e-08 -0.04813803359866142 -0.06243084371089935
-0.01598370261490345 -0.04417446628212929 -0.06539682298898697
9.7259214726364e-07 -0.04419144243001938 -0.06539682298898697
-0.04168633371591568 -0.041056063026189804 0.023568514734506607
-0.040869247168302536 -0.04003962129354477 0.023626385256648064
-0.038916315883398056 -0.03400123491883278 0.026744119822978973
-0.03909801319241524 -0.02833452634513378 0.026744119822978973
-0.038589272648096085 -0.035707056522369385 0.026744119822978973
-0.0392007976770401 -0.03420992195606232 0.025250960141420364
-0.03885817527770996 -0.03602372109889984 0.025250960141420364
-0.039406366646289825 -0.02841966226696968 0.025250960141420364
-0.03964412212371826 -0.034532807767391205 0.024608157575130463
-0.03988396003842354 -0.02855151705443859 0.024608157575130463
-0.03927658498287201 -0.03651480749249458 0.024608157575130463
-0.04022035002708435 -0.03495329990983009 0.024114172905683517
-0.03982166573405266 -0.03715435788035393 0.024114172905683517
-0.04050690308213234 -0.02872283011674881 0.024114172905683517
-0.040906623005867004 -0.03555339574813843 0.023794837296009064
-0.04130011796951294 -0.029178611934185028 0.02379380539059639
-0.04046952351927757 -0.037945497781038284 0.023795869201421738
-0.038098182529211044 -0.036656007170677185 0.026744119822978973
-0.03745032846927643 -0.03745025768876076 0.026744119822978973
-0.0383785143494606 -0.03699447214603424 0.025250960141420364
-0.03775971755385399 -0.037759654223918915 0.025250960141420364
-0.03881249576807022 -0.03752085566520691 0.024608157575130463
-0.038240425288677216 -0.03824035823345184 0.024608157575130463
-0.039377301931381226 -0.03820609301328659 0.024114172905683517
-0.03886544704437256 -0.038865379989147186 0.024114172905683517
-0.040051110088825226 -0.039025261998176575 0.023795869201421738
-0.039616093039512634 -0.03961602598428726 0.023795869201421738
-0.03665607422590256 -0.03809811547398567 0.026744119822978973
-0.03570712357759476 -0.03858920559287071 0.026744119822978973
-0.03699453920125961 -0.03837844356894493 0.025250960141420364
-0.03602274879813194 -0.03885811194777489 0.025250960141420364
-0.03752092644572258 -0.03881242871284485 0.024608157575130463
-0.03651487082242966 -0.03927651420235634 0.024608157575130463
-0.03820616006851196 -0.039377231150865555 0.024114172905683517
-0.0371544286608696 -0.03982159495353699 0.024114172905683517
-0.039025332778692245 -0.04005104675889015 0.023795869201421738
-0.03794556483626366 -0.0404694601893425 0.023795869201421738
-0.03400130197405815 -0.038916248828172684 0.026744119822978973
-0.028334595263004303 -0.03909794241189957 0.026744119822978973
-0.03420998528599739 -0.03920073062181473 0.025250960141420364
-0.028419729322195053 -0.03940629959106445 0.025250960141420364
-0.03453287482261658 -0.03964405134320259 0.024608157575130463
-0.028551585972309113 -0.03988388925790787 0.024608157575130463
-0.034953366965055466 -0.04022027924656868 0.024114172905683517
-0.028722897171974182 -0.04050683230161667 0.024114172905683517
-0.0355534628033638 -0.040906552225351334 0.023794837296009064
-0.02917868085205555 -0.04130004718899727 0.02379380539059639
-0.0414610393345356 -0.016349105164408684 0.023794837296009064
-0.04293118417263031 -0.016894180327653885 0.023624319583177567
-0.041481804102659225 2.8607306745698224e-08 0.023795869201421738
-0.04296129196882248 2.8607306745698224e-08 0.023626385256648064
-0.04062214493751526 -0.016207905486226082 0.024114172905683517
-0.04063771665096283 2.8607306745698224e-08 0.024114172905683517
-0.0399794764816761 -0.016163259744644165 0.024608157575130463
-0.03999193012714386 2.8607306745698224e-08 0.024608157575130463
-0.039485275745391846 -0.01612899824976921 0.025250960141420364
-0.03949565440416336 2.8607306745698224e-08 0.025250960141420364
-0.03916653245687485 -0.016107195988297462 0.026744119822978973
-0.03917587921023369 2.8607306745698224e-08 0.026744119822978973
-0.016349172219634056 -0.04146096855401993 0.023794837296009064
-3.724250419168129e-08 -0.04148173704743385 0.023795869201421738
-0.016207972541451454 -0.04062207415699959 0.024114172905683517
-3.724250419168129e-08 -0.040637653321027756 0.024114172905683517
-0.016163330525159836 -0.03997940942645073 0.024608157575130463
-3.724250419168129e-08 -0.03999186307191849 0.024608157575130463
-0.016129065304994583 -0.039485204964876175 0.025250960141420364
-3.724250419168129e-08 -0.03949558734893799 0.025250960141420364
-0.016107264906167984 -0.039166465401649475 0.026744119822978973
-3.724250419168129e-08 -0.03917580842971802 0.026744119822978973
-0.048432812094688416 -0.04140179231762886 0.02331428788602352
-0.04896023869514465 -0.03384445607662201 0.02331635169684887
-0.04752019792795181 -0.04445836693048477 0.02331428788602352
-0.049192801117897034 -0.04150665923953056 0.02299598418176174
-0.0481836311519146 -0.04472830519080162 0.02299598418176174
-0.04978667199611664 -0.03379150852560997 0.02299598418176174
-0.04981677979230881 -0.041645780205726624 0.022501999512314796
-0.05042830482125282 -0.03387768194079399 0.022501999512314796
-0.048734940588474274 -0.044965025037527084 0.022501999512314796
-0.050296444445848465 -0.04175271838903427 0.021859198808670044
-0.04915957525372505 -0.04514671862125397 0.021859198808670044
-0.05092146247625351 -0.033944129943847656 0.021859198808670044
-0.050605837255716324 -0.04182124137878418 0.01971687562763691
-0.05123916640877724 -0.033987730741500854 0.01971687562763691
-0.049433670938014984 -0.04526299983263016 0.01971687562763691
-0.046252503991127014 -0.04625244066119194 0.02331428788602352
-0.044458433985710144 -0.04751908779144287 0.02331428788602352
-0.04672490805387497 -0.0467248409986496 0.02299598418176174
-0.04472837224602699 -0.04818252846598625 0.02299598418176174
-0.04712359234690666 -0.04712352156639099 0.022501999512314796
-0.04496509209275246 -0.0487348698079586 0.022501999512314796
-0.04742986708879471 -0.047429803758859634 0.021859198808670044
-0.04514678567647934 -0.04915950447320938 0.021859198808670044
-0.04762713611125946 -0.04762707278132439 0.01971687562763691
-0.0452641062438488 -0.04943256825208664 0.01971687562763691
-0.0414029024541378 -0.04843274503946304 0.02331428788602352
-0.03384452313184738 -0.04896016791462898 0.02331635169684887
-0.041506726294755936 -0.04919169470667839 0.02299598418176174
-0.033791571855545044 -0.04978660121560097 0.02299598418176174
-0.041645847260951996 -0.049816712737083435 0.022501999512314796
-0.033878784626722336 -0.05042823776602745 0.022501999512314796
-0.041752785444259644 -0.05029637739062309 0.021859198808670044
-0.033945232629776 -0.05092139542102814 0.021859198808670044
-0.04182234779000282 -0.05060577392578125 0.01971687562763691
-0.033987801522016525 -0.051238059997558594 0.01971687562763691
-0.01907973922789097 -0.05147477611899376 0.01971687562763691
-3.724250419168129e-08 -0.051505930721759796 0.01971687562763691
-0.01905793510377407 -0.05115500092506409 0.021859198808670044
-3.724250419168129e-08 -0.051187191158533096 0.021859198808670044
-0.01902575045824051 -0.05065872147679329 0.022501999512314796
-3.724250419168129e-08 -0.05068986862897873 0.022501999512314796
-0.018983183428645134 -0.05001397430896759 0.02299598418176174
-3.724250419168129e-08 -0.050044089555740356 0.02299598418176174
-0.01893438771367073 -0.049170926213264465 0.02331428788602352
-3.724250419168129e-08 -0.04920103773474693 0.02331428788602352
-0.05147484317421913 -0.019079672172665596 0.01971687562763691
-0.05150599405169487 2.8607306745698224e-08 0.01971687562763691
-0.05115506798028946 -0.01905786618590355 0.021859198808670044
-0.05118725448846817 2.8607306745698224e-08 0.021859198808670044
-0.05065879225730896 -0.019025681540369987 0.022501999512314796
-0.0506899356842041 2.8607306745698224e-08 0.022501999512314796
-0.05001404136419296 -0.01898311823606491 0.02299598418176174
-0.05004415661096573 2.8607306745698224e-08 0.02299598418176174
-0.049170996993780136 -0.01893432065844536 0.02331428788602352
-0.049201104789972305 2.8607306745698224e-08 0.02331428788602352
-0.0476946197450161 -0.018690332770347595 0.023485839366912842
-0.04772058129310608 2.8607306745698224e-08 0.023483771830797195
-0.04531809687614441 -0.017677010968327522 0.023555079475045204
-0.04534093663096428 2.8607306745698224e-08 0.023555079475045204
-0.0311727374792099 -0.038922443985939026 -0.06414739042520523
-0.03421154245734215 -0.037976063787937164 -0.064141184091568
-0.025126073509454727 -0.03960727900266647 -0.064141184091568
-0.04117760434746742 -0.05012921988964081 -0.053490541875362396
-0.03342611715197563 -0.05076773837208748 -0.053490541875362396
-0.0446411594748497 -0.04892902076244354 -0.053490541875362396
-0.03625405207276344 -0.0362510122358799 -0.06414739042520523
-0.03797810897231102 -0.03420950472354889 -0.064141184091568
-0.04706545174121857 -0.047065380960702896 -0.053490541875362396
-0.048929087817668915 -0.04464109241962433 -0.053490541875362396
-0.03892448917031288 -0.031170697882771492 -0.06414739042520523
-0.039608318358659744 -0.02512403391301632 -0.064141184091568
-0.05012928694486618 -0.04117649421095848 -0.053490541875362396
-0.05076884478330612 -0.03342501074075699 -0.053490541875362396
-0.01875372976064682 -0.051005493849515915 -0.053490541875362396
-3.724250419168129e-08 -0.051037680357694626 -0.053490541875362396
-0.014346499927341938 -0.039629239588975906 -0.06414945423603058
9.7259214726364e-07 -0.039546381682157516 -0.0641525611281395
-0.051005564630031586 -0.018753662705421448 -0.053490541875362396
-0.049528155475854874 -0.018043510615825653 -0.05695049464702606
-0.05103774741292 2.8607306745698224e-08 -0.053490541875362396
-0.04956033453345299 2.8607306745698224e-08 -0.05695049464702606
-0.03962928429245949 -0.014345459640026093 -0.06414945423603058
-0.042923349887132645 -0.015092378482222557 -0.06268197298049927
-0.039547424763441086 1.6168922201131863e-08 -0.0641525611281395
-0.042953893542289734 1.2136501581494485e-08 -0.06268197298049927
-0.04675501585006714 -0.016724947839975357 -0.05992164462804794
-0.04678720235824585 2.8607306745698224e-08 -0.05992164462804794
-0.0329936258494854 -0.0415569432079792 -0.0668632760643959
-0.03121267259120941 -0.037961091846227646 -0.0672621801495552
-0.03553328290581703 -0.0410647839307785 -0.06685914099216461
-0.03414466232061386 -0.03875573351979256 -0.06721878051757812
-0.02703680843114853 -0.041983217000961304 -0.06685914099216461
-0.026312047615647316 -0.03954138979315758 -0.06721878051757812
-0.037232380360364914 -0.040024563670158386 -0.0668632760643959
-0.034753620624542236 -0.03681604936718941 -0.0672621801495552
-0.03885261341929436 -0.0388505682349205 -0.06685914099216461
-0.0369139239192009 -0.03691088408231735 -0.06721878051757812
-0.04002660512924194 -0.03722934052348137 -0.0668632760643959
-0.036818087100982666 -0.03475058078765869 -0.0672621801495552
-0.04106682538986206 -0.035530246794223785 -0.06685914099216461
-0.038757771253585815 -0.034141622483730316 -0.06721878051757812
-0.04155898094177246 -0.03299158439040184 -0.0668632760643959
-0.0379631333053112 -0.031209630891680717 -0.0672621801495552
-0.04198525473475456 -0.02703476883471012 -0.06685914099216461
-0.039543431252241135 -0.02631000615656376 -0.06721878051757812
-0.015597363002598286 -0.04191632941365242 -0.06686430424451828
-0.01795133948326111 -0.03765162080526352 -0.06727251410484314
9.7259214726364e-07 -0.041804518550634384 -0.06686637550592422
9.7259214726364e-07 -0.03654451668262482 -0.0672818198800087
-0.04191737249493599 -0.015596320852637291 -0.06686430424451828
-0.03765266016125679 -0.01795029640197754 -0.06727251410484314
-0.04180556535720825 1.6168922201131863e-08 -0.06686637550592422
-0.03654555603861809 1.6168922201131863e-08 -0.0672818198800087
-0.028250733390450478 -0.028249690309166908 -0.06737999618053436
-2.5701242023501436e-08 -0.02362160198390484 -0.0673903301358223
-0.023622645065188408 1.6168922201131863e-08 -0.0673903301358223
-2.5701242023501436e-08 1.6168922201131863e-08 -0.06740479916334152
-0.054456666111946106 0.020636050030589104 -0.016615860164165497
-0.054433826357126236 0.02062462829053402 -0.04241781681776047
-0.054268740117549896 0.020544683560729027 0.009436191990971565
-0.05432792752981186 0.03648579120635986 -0.016615860164165497
-0.05413999781012535 0.03632797673344612 0.009436191990971565
-0.05430508404970169 0.036466069519519806 -0.04241781681776047
-0.015933383256196976 0.044077858328819275 0.04073279723525047
-0.028201548382639885 0.043937359005212784 0.04073279723525047
-0.015607588924467564 0.04376937076449394 0.03765316307544708
-0.02772711031138897 0.043643124401569366 0.03765316307544708
-0.016802843660116196 0.043153416365385056 0.04316345229744911
-0.029030287638306618 0.04290703684091568 0.04316345229744911
-3.600623443844597e-08 0.04409923404455185 0.04073279723525047
-3.600623443844597e-08 0.04320432245731354 0.04316345229744911
-3.600623443844597e-08 0.0437866747379303 0.03765316307544708
-0.014482581056654453 0.041425690054893494 0.03194853663444519
-0.025768278166651726 0.041299447417259216 0.03194853663444519
-0.014759151265025139 0.041831064969301224 0.027590828016400337
-0.026241805404424667 0.04170674458146095 0.027590828016400337
-0.01462206244468689 0.04171686992049217 0.035775456577539444
-0.026011604815721512 0.041590623557567596 0.035775456577539444
-3.600623443844597e-08 0.041443001478910446 0.03194853663444519
-3.600623443844597e-08 0.04173417389392853 0.035775456577539444
-3.408078441680118e-08 0.04184810444712639 0.027590828016400337
-0.04765448346734047 0.03822680190205574 -0.06243084371089935
-0.04372229054570198 0.03464478999376297 -0.06539682298898697
-0.047001875936985016 0.04095430672168732 -0.06243084371089935
-0.04309136047959328 0.03724035248160362 -0.06539682298898697
-0.04799555242061615 0.03137902915477753 -0.06243084371089935
-0.04405371844768524 0.028361530974507332 -0.06539682298898697
-0.05159631371498108 0.04190851002931595 -0.05939355492591858
-0.051945172250270844 0.0344923734664917 -0.05939355492591858
-0.05092976987361908 0.04475120082497597 -0.05939355492591858
-0.04774964973330498 0.04774859547615051 -0.016185946762561798
-0.04532743990421295 0.04961119964718819 -0.016185946762561798
-0.047591838985681534 0.04759182408452034 -0.04112497717142105
-0.045167550444602966 0.049455463886260986 -0.04112497717142105
-0.04773200303316116 0.04773198813199997 0.008606336079537868
-0.04532640054821968 0.04957900568842888 0.008606336079537868
-0.04961121082305908 0.045326393097639084 -0.016185946762561798
-0.04957902058959007 0.045325346291065216 0.008606336079537868
-0.04945547506213188 0.04516753926873207 -0.04112497717142105
-0.01527570653706789 0.043198082596063614 0.03640579804778099
-0.027154840528964996 0.04307049140334129 0.03640579804778099
-3.4638333090697415e-08 0.043215569108724594 0.03640579804778099
-0.019697317853569984 0.04077104851603508 0.044024307280778885
-0.02995370700955391 0.03923574835062027 0.044016048312187195
-0.03089953027665615 0.04066211357712746 0.044208262115716934
-0.03269648551940918 0.039511654525995255 0.04434984549880028
-0.01670612394809723 0.03897714987397194 0.041544049978256226
-0.02832982875406742 0.03851187229156494 0.041544049978256226
-3.600623443844597e-08 0.041044916957616806 0.04387446492910385
-3.600623443844597e-08 0.03910033777356148 0.041544049978256226
-0.044077884405851364 0.015933359041810036 0.04073279723525047
-0.04376939684152603 0.015607564710080624 0.03765316307544708
-0.043153442442417145 0.016802821308374405 0.04316345229744911
-0.04393738508224487 0.028200507164001465 0.04073279723525047
-0.04290706664323807 0.0290292426943779 0.04316345229744911
-0.043643150478601456 0.0277260709553957 0.03765316307544708
-0.04812179505825043 0.017707915976643562 -0.06243084371089935
-0.05207391083240509 0.01948983408510685 -0.05939355492591858
-0.04417550936341286 0.015982694923877716 -0.06539682298898697
-0.05397907271981239 0.044245582073926926 -0.016615860164165497
-0.05395623669028282 0.04422377422451973 -0.04241781681776047
-0.053313568234443665 0.04713500291109085 -0.016615860164165497
-0.053290724754333496 0.04711215943098068 -0.04241781681776047
-0.05379115417599678 0.04406077787280083 0.009436191990971565
-0.05312460660934448 0.04694603756070137 0.009436191990971565
-0.016580702736973763 0.046016816049814224 0.02695494331419468
-0.029430974274873734 0.04588807374238968 0.02695494331419468
-0.018073689192533493 0.04912426695227623 0.026098381727933884
-0.03202761337161064 0.048995524644851685 0.026098381727933884
-3.724250419168129e-08 0.046034470200538635 0.02695494331419468
-3.724250419168129e-08 0.04914087802171707 0.026098381727933884
-0.04142571985721588 0.014481538906693459 0.03194853663444519
-0.04183106869459152 0.014759148471057415 0.027590828016400337
-0.04171689599752426 0.01462203823029995 0.035775456577539444
-0.041299473494291306 0.025767236948013306 0.03194853663444519
-0.041590653359889984 0.026010561734437943 0.035775456577539444
-0.04170675203204155 0.026240801438689232 0.027590828016400337
-0.04601683095097542 0.016580691561102867 0.02695494331419468
-0.049124281853437424 0.018072638660669327 0.026098381727933884
-0.045888084918260574 0.029429929330945015 0.02695494331419468
-0.04899553954601288 0.03202759474515915 0.026098381727933884
-0.0431981086730957 0.01527568232268095 0.03640579804778099
-0.043070513755083084 0.027154818177223206 0.03640579804778099
-0.024956364184617996 0.024955356493592262 -0.06482015550136566
-0.01626821607351303 0.034973230212926865 -0.06466101109981537
-2.5701242023501436e-08 0.021424394100904465 -0.0648377314209938
-2.5701242023501436e-08 0.034021854400634766 -0.06467651575803757
-0.02898447960615158 0.03499918431043625 -0.06464654207229614
-0.024234598502516747 0.036865994334220886 -0.06458143889904022
-0.03303655609488487 0.0330345444381237 -0.06464654207229614
-0.03238866105675697 0.035488348454236984 -0.06458143889904022
-0.03500119596719742 0.02898246794939041 -0.06464654207229614
-0.035490356385707855 0.032385654747486115 -0.06458143889904022
-0.03497423976659775 0.016267210245132446 -0.06466101109981537
-0.03686700016260147 0.024232594296336174 -0.06458143889904022
-0.03843452408909798 0.03415947034955025 0.044016048312187195
-0.03793463855981827 0.03530382737517357 0.044016048312187195
-0.038116876035928726 0.033466141670942307 0.041544049978256226
-0.03773915767669678 0.0349322147667408 0.041544049978256226
-0.03864527493715286 0.03548402711749077 0.04434984549880028
-0.03809957206249237 0.03593606501817703 0.04434984549880028
-0.03923577815294266 0.02995368279516697 0.044016048312187195
-0.039511680603027344 0.03269645944237709 0.04434984549880028
-0.03851190209388733 0.02832980453968048 0.041544049978256226
-0.05168560892343521 0.019083883613348007 -0.016185946762561798
-0.05153195187449455 0.019007056951522827 -0.04112497717142105
-0.051448892802000046 0.034000247716903687 -0.016185946762561798
-0.05129419267177582 0.03386528417468071 -0.04112497717142105
-0.05164511501789093 0.019090114161372185 0.008606336079537868
-0.05140736326575279 0.03400959447026253 0.008606336079537868
-0.017677079886198044 0.04531807824969292 0.023555079475045204
-3.724250419168129e-08 0.045340925455093384 0.023555079475045204
-0.01869143731892109 0.0476946085691452 0.023485839366912842
-3.724250419168129e-08 0.047720566391944885 0.023483771830797195
-0.01689528487622738 0.042931172996759415 0.023624319583177567
-3.724250419168129e-08 0.042961280792951584 0.023626385256648064
-0.03170056268572807 0.04514573514461517 0.023555079475045204
-0.0317285992205143 0.04269133880734444 0.023605715483427048
-0.03512778505682945 0.04744231700897217 0.02350444160401821
-0.03827570378780365 0.01588957943022251 0.03576606884598732
-0.03816676139831543 0.027796320617198944 0.03576606884598732
-0.03899729996919632 0.016095833852887154 0.02978450618684292
-0.03893397003412247 0.02828890271484852 0.02978450618684292
-0.03897717595100403 0.01670609973371029 0.041544049978256226
-0.04478132352232933 0.037987079471349716 0.023555079475045204
-0.04514574632048607 0.031700555235147476 0.023555079475045204
-0.04333505779504776 0.03857368230819702 0.02356024459004402
-0.04269135370850563 0.0317285880446434 0.023605715483427048
-0.04571574181318283 0.04056502878665924 0.023549912497401237
-0.04744232818484306 0.03512777015566826 0.02350444160401821
-0.043192822486162186 0.04319280758500099 0.023555079475045204
-0.037977393716573715 0.03322688862681389 0.03576606884598732
-0.03765974938869476 0.03480597212910652 0.03576606884598732
-0.03876369446516037 0.033891234546899796 0.02978450618684292
-0.03844599798321724 0.035537879914045334 0.02978450618684292
-0.037168003618717194 0.03571310266852379 0.03576606884598732
-0.037220943719148636 0.035783350467681885 0.041544049978256226
-0.03651030734181404 0.03651027753949165 0.03576606884598732
-0.036558154970407486 0.0365581251680851 0.041544049978256226
-0.03794972226023674 0.03647540509700775 0.02978450618684292
-0.03728628531098366 0.03728627413511276 0.02978450618684292
-0.035713132470846176 0.037167977541685104 0.03576606884598732
-0.03578338027000427 0.03722091764211655 0.041544049978256226
-0.03480599820613861 0.037659723311662674 0.03576606884598732
-0.03493224456906319 0.03773912787437439 0.041544049978256226
-0.03647541627287865 0.037949707359075546 0.02978450618684292
-0.03553789108991623 0.038445983082056046 0.02978450618684292
-0.03798813372850418 0.044781312346458435 0.023555079475045204
-0.040565043687820435 0.04571572691202164 0.023549912497401237
-0.038573697209358215 0.043335046619176865 0.02356024459004402
-0.03889243304729462 0.04237363860011101 0.023567479103803635
-0.04066990315914154 0.04218364506959915 0.023563344031572342
-0.03688967972993851 0.04169982299208641 0.023624319583177567
-0.0390741303563118 0.04125337675213814 0.023626385256648064
-0.046333491802215576 0.042325880378484726 0.023542677983641624
-0.04743921384215355 0.041664522141218185 0.023485839366912842
-0.04554546996951103 0.04392476752400398 0.023546813055872917
-0.04668441414833069 0.044198859483003616 0.023483771830797195
-0.041056130081415176 0.041686318814754486 0.023568514734506607
-0.041699834167957306 0.04169982299208641 0.023563344031572342
-0.04003969207406044 0.04086923226714134 0.023626385256648064
-0.040554653853178024 0.04055464267730713 0.023626385256648064
-0.033226918429136276 0.037977367639541626 0.03576606884598732
-0.033466171473264694 0.03811684995889664 0.041544049978256226
-0.027796342968940735 0.03816673159599304 0.03576606884598732
-0.03389124572277069 0.038763679563999176 0.02978450618684292
-0.028288913890719414 0.03893395885825157 0.02978450618684292
-0.03703191503882408 0.04588080570101738 -0.05992164462804794
-0.029895063489675522 0.04651828482747078 -0.05992164462804794
-0.03360157832503319 0.04207829385995865 -0.06268197298049927
-0.02702869102358818 0.042693231254816055 -0.06268197298049927
-0.03972925990819931 0.048651862889528275 -0.05695049464702606
-0.03219165280461311 0.04929037764668465 -0.05695049464702606
-0.040408264845609665 0.04468372091650963 -0.05992164462804794
-0.04316478967666626 0.04745166003704071 -0.05695049464702606
-0.036813702434301376 0.04092579707503319 -0.06268197298049927
-0.034159500151872635 0.03843449801206589 0.044016048312187195
-0.035484056919813156 0.03864524886012077 0.04434984549880028
-0.03530385345220566 0.03793460875749588 0.044016048312187195
-0.03593609109520912 0.03809954226016998 0.04434984549880028
-0.04077107459306717 0.019697293639183044 0.044024307280778885
-0.040662143379449844 0.030898483470082283 0.044208262115716934
-0.036035869270563126 0.03738483414053917 0.044016048312187195
-0.036704763770103455 0.03769535571336746 0.04434984549880028
-0.03672105073928833 0.03672102466225624 0.044016048312187195
-0.0370376855134964 0.03703664243221283 0.04434984549880028
-0.03738486021757126 0.036035843193531036 0.044016048312187195
-0.03769538551568985 0.036704737693071365 0.04434984549880028
-0.03825635835528374 0.03825633227825165 0.04424339905381203
-0.04227278381586075 0.03536898270249367 0.04306527599692345
-0.035369012504816055 0.04227275773882866 0.04306527599692345
-0.03882547467947006 0.04108971729874611 0.042968135327100754
-0.037283048033714294 0.042312461882829666 0.042547520250082016
-0.04109076038002968 0.03882443159818649 0.042968135327100754
-0.04029765725135803 0.040297627449035645 0.042547520250082016
-0.042312487959861755 0.03728301823139191 0.042547520250082016
-0.04424662888050079 0.053979065269231796 -0.016615860164165497
-0.04422378912568092 0.05395622178912163 -0.04241781681776047
-0.03648580238223076 0.054327912628650665 -0.016615860164165497
-0.036467116326093674 0.054305072873830795 -0.04241781681776047
-0.04713605344295502 0.05331355705857277 -0.016615860164165497
-0.04711320623755455 0.0532907098531723 -0.04241781681776047
-0.04406078904867172 0.05379011109471321 0.009436191990971565
-0.046947088092565536 0.05312459170818329 0.009436191990971565
-0.036327995359897614 0.054139986634254456 0.009436191990971565
-0.04910869896411896 0.05225766822695732 -0.016615860164165497
-0.04908585920929909 0.05223482847213745 -0.04241781681776047
-0.0508384071290493 0.050838395953178406 -0.016615860164165497
-0.05081556737422943 0.05081555247306824 -0.04241781681776047
-0.04891974851489067 0.05206870660185814 0.009436191990971565
-0.05065048485994339 0.050649430602788925 0.009436191990971565
-0.05225767567753792 0.04910868778824806 -0.016615860164165497
-0.05223483964800835 0.04908584803342819 -0.04241781681776047
-0.052068717777729034 0.04891973361372948 0.009436191990971565
-0.04596952348947525 0.04288565739989281 -0.06243084371089935
-0.04209207370877266 0.03911015763878822 -0.06539682298898697
-0.04458082839846611 0.04457876458764076 -0.06243084371089935
-0.04074936732649803 0.04074735566973686 -0.06539682298898697
-0.04987388476729393 0.0467238575220108 -0.05939355492591858
-0.048455651849508286 0.04845459759235382 -0.05939355492591858
-0.043558649718761444 0.034484248608350754 0.0407162606716156
-0.04296509549021721 0.037058018147945404 0.04065735638141632
-0.043301068246364594 0.03394465893507004 0.03765316307544708
-0.04264744743704796 0.036589689552783966 0.03765316307544708
-0.04192865639925003 0.03894151747226715 0.04069869592785835
-0.04059901461005211 0.04059898853302002 0.04065735638141632
-0.04161304607987404 0.038524091243743896 0.03765316307544708
-0.04022129997611046 0.04022127017378807 0.03765316307544708
-0.03894154354929924 0.04192863032221794 0.04069869592785835
-0.03705906867980957 0.04296506941318512 0.04065735638141632
-0.038524117320775986 0.04161302000284195 0.03765316307544708
-0.036589719355106354 0.04264741763472557 0.03765316307544708
-0.03448427841067314 0.043558623641729355 0.0407162606716156
-0.03394468501210213 0.043301042169332504 0.03765316307544708
-0.035970836877822876 0.04553922638297081 0.02695494331419468
-0.039017029106616974 0.048645634204149246 0.026098381727933884
-0.03869516775012016 0.044872671365737915 0.02695494331419468
-0.041802626103162766 0.04798012226819992 0.026098381727933884
-0.03218115121126175 0.04136987403035164 0.027590828016400337
-0.03476081043481827 0.04072621464729309 0.027590828016400337
-0.04066886380314827 0.043817825615406036 0.02695494331419468
-0.043775271624326706 0.04692423343658447 0.026098381727933884
-0.042398568242788315 0.04239855706691742 0.02695494331419468
-0.04550601541996002 0.045504964888095856 0.026098381727933884
-0.03666573017835617 0.039706580340862274 0.027590828016400337
-0.038337044417858124 0.038337040692567825 0.027590828016400337
-0.04381783679127693 0.0406678132712841 0.02695494331419468
-0.046924248337745667 0.04377526044845581 0.026098381727933884
-0.04487372562289238 0.03869515657424927 0.02695494331419468
-0.047980137169361115 0.041801568120718 0.026098381727933884
-0.03970658779144287 0.036665719002485275 0.027590828016400337
-0.04072621837258339 0.03476080670952797 0.027590828016400337
-0.045539237558841705 0.03597082197666168 0.02695494331419468
-0.04864564538002014 0.03901701420545578 0.026098381727933884
-0.041369881480932236 0.032180141657590866 0.027590828016400337
-0.0508093386888504 0.041850365698337555 -0.016185946762561798
-0.05065567418932915 0.04169255495071411 -0.04112497717142105
-0.050770919770002365 0.041858673095703125 0.008606336079537868
-0.042886700481176376 0.0459674596786499 -0.06243084371089935
-0.03911216929554939 0.04209006577730179 -0.06539682298898697
-0.040955353528261185 0.047000836580991745 -0.06243084371089935
-0.03724236786365509 0.043089356273412704 -0.06539682298898697
-0.04672490805387497 0.049873869866132736 -0.05939355492591858
-0.044752251356840134 0.05092871934175491 -0.05939355492591858
-0.042724791914224625 0.03328833729028702 0.03640579804778099
-0.04206421226263046 0.03594197705388069 0.03640579804778099
-0.041248567402362823 0.031931862235069275 0.03577442467212677
-0.04059595987200737 0.034537192434072495 0.03577442467212677
-0.04101880267262459 0.03789696842432022 0.03640579804778099
-0.039612241089344025 0.039612215012311935 0.03640579804778099
-0.039560552686452866 0.03647260740399361 0.03577442467212677
-0.03816879913210869 0.0381687730550766 0.03577442467212677
-0.037898022681474686 0.0410187765955925 0.03640579804778099
-0.03594200685620308 0.042064182460308075 0.03640579804778099
-0.036472633481025696 0.03956052288413048 0.03577442467212677
-0.034538235515356064 0.04059593379497528 0.03577442467212677
-0.03328939527273178 0.04272476211190224 0.03640579804778099
-0.031932905316352844 0.041248537600040436 0.03577442467212677
-0.04095739126205444 0.031646791845560074 0.03194853663444519
-0.04030478745698929 0.034246012568473816 0.03194853663444519
-0.03926936909556389 0.03618142753839493 0.03194853663444519
-0.03787762299180031 0.03787759691476822 0.03194853663444519
-0.036181457340717316 0.0392693430185318 0.03194853663444519
-0.034246038645505905 0.0403047576546669 0.03194853663444519
-0.03164681792259216 0.04095735773444176 0.03194853663444519
-0.0206360574811697 0.05445665866136551 -0.016615860164165497
-0.020624639466404915 0.05443381145596504 -0.04241781681776047
-0.020544692873954773 0.054268728941679 0.009436191990971565
-3.724250419168129e-08 0.05447430536150932 -0.016615860164165497
-3.724250419168129e-08 0.05428534001111984 0.009436191990971565
-3.724250419168129e-08 0.054451461881399155 -0.04241781681776047
-0.0423736535012722 0.03889242559671402 0.023567479103803635
-0.041699834167957306 0.03688862919807434 0.023624319583177567
-0.04218365624547005 0.040669891983270645 0.023563344031572342
-0.04125338792800903 0.039074115455150604 0.023626385256648064
-0.01672605238854885 0.046755000948905945 -0.05992164462804794
-0.018044617027044296 0.04952813684940338 -0.05695049464702606
-3.724250419168129e-08 0.046787191182374954 -0.05992164462804794
-3.724250419168129e-08 0.049560319632291794 -0.05695049464702606
-0.015093444846570492 0.04292230308055878 -0.06268197298049927
9.820987543207593e-07 0.042952850461006165 -0.06268197298049927
-0.01588960364460945 0.03827567398548126 0.03576606884598732
-0.0160958431661129 0.038997288793325424 0.02978450618684292
-3.600623443844597e-08 0.038297053426504135 0.03576606884598732
-3.724250419168129e-08 0.039005596190690994 0.02978450618684292
-0.045881856232881546 0.037030864506959915 -0.05992164462804794
-0.044684771448373795 0.040406178683042526 -0.05992164462804794
-0.042080357670784 0.03359849750995636 -0.06268197298049927
-0.040927860885858536 0.03681163862347603 -0.06268197298049927
-0.04865187034010887 0.039728209376335144 -0.05695049464702606
-0.047452714294195175 0.043163739144802094 -0.05695049464702606
-0.046519335359334946 0.029894018545746803 -0.05992164462804794
-0.04929143190383911 0.03219060227274895 -0.05695049464702606
-0.0426952950656414 0.02702663093805313 -0.06268197298049927
-0.04185038059949875 0.05080932378768921 -0.016185946762561798
-0.03400026261806488 0.05144887790083885 -0.016185946762561798
-0.04169360548257828 0.05065566673874855 -0.04112497717142105
-0.03386632353067398 0.051294177770614624 -0.04112497717142105
-0.04185868427157402 0.05077090859413147 0.008606336079537868
-0.034010645002126694 0.0514073520898819 0.008606336079537868
-0.042826324701309204 0.04282423108816147 -0.05992164462804794
-0.03914108872413635 0.0391390286386013 -0.06268197298049927
-0.04558907821774483 0.045588020235300064 -0.05695049464702606
-0.045112524181604385 0.04511251300573349 0.023541642352938652
-0.045694973319768906 0.04569496214389801 0.023483771830797195
-0.043924782425165176 0.04554545506834984 0.023546813055872917
-0.04419887438416481 0.04668440297245979 0.023483771830797195
-0.04232589155435562 0.04633347690105438 0.023542677983641624
-0.04166453704237938 0.04743920639157295 0.023485839366912842
-0.019084932282567024 0.05168559402227402 -0.016185946762561798
-0.019007064402103424 0.05153193697333336 -0.04112497717142105
-3.724250419168129e-08 0.05171778053045273 -0.016185946762561798
-3.724250419168129e-08 0.05156411975622177 -0.04112497717142105
-0.019091160967946053 0.051645103842020035 0.008606336079537868
-3.724250419168129e-08 0.051676250994205475 0.008606336079537868
-0.04122951626777649 0.05090276524424553 0.025534121319651604
-0.03391408920288086 0.0512516163289547 0.025534121319651604
