0.02681501768529415 -7.621080433395377e-10 -0.030721141025424004
0.026299791410565376 0.005231350660324097 -0.030721141025424004
0.024773843586444855 0.010261664167046547 -0.030721141025424004
0.0222958754748106 0.014897649176418781 -0.030721141025424004
0.01896107755601406 0.0189611054956913 -0.030721141025424004
0.014897621236741543 0.022295869886875153 -0.030721141025424004
0.010261669754981995 0.024773873388767242 -0.030721141025424004
0.005231345538049936 0.026299789547920227 -0.030721141025424004
-6.0668918777651015e-09 0.02681504189968109 -0.030721141025424004
-0.005231355782598257 0.026299789547920227 -0.030721141025424004
-0.01026167068630457 0.024773873388767242 -0.030721141025424004
-0.01489763893187046 0.022295869886875153 -0.030721141025424004
-0.018961092457175255 0.0189611054956913 -0.030721141025424004
-0.022295892238616943 0.014897617511451244 -0.030721141025424004
-0.024773860350251198 0.010261664167046547 -0.030721141025424004
-0.026299811899662018 0.005231349729001522 -0.030721141025424004
-0.026815032586455345 -1.013908601521507e-08 -0.030721141025424004
-0.026299811899662018 -0.005231368355453014 -0.030721141025424004
-0.024773860350251198 -0.010261673480272293 -0.030721141025424004
-0.022295892238616943 -0.01489764079451561 -0.030721141025424004
-0.018961092457175255 -0.018961099907755852 -0.030721141025424004
-0.01489763893187046 -0.02229589782655239 -0.030721141025424004
-0.0102616548538208 -0.024773864075541496 -0.030721141025424004
-0.005231339950114489 -0.02629978395998478 -0.030721141025424004
1.8440763582816544e-08 -0.026815034449100494 -0.030721141025424004
0.005231377203017473 -0.02629978395998478 -0.030721141025424004
0.010261684656143188 -0.024773864075541496 -0.030721141025424004
0.014897654764354229 -0.022295862436294556 -0.030721141025424004
0.018961111083626747 -0.018961068242788315 -0.030721141025424004
0.022295905277132988 -0.014897612854838371 -0.030721141025424004
0.02477387525141239 -0.010261625982820988 -0.030721141025424004
0.026299791410565376 -0.005231313407421112 -0.030721141025424004
0.04103212058544159 -6.751104120183982e-09 0.11464600265026093
0.0402437299489975 0.008004965260624886 0.11464600265026093
0.037908732891082764 0.01570231094956398 0.11464600265026093
0.034116968512535095 0.022796256467700005 0.11464600265026093
0.029014091938734055 0.02901412546634674 0.11464600265026093
0.02279622294008732 0.0341169573366642 0.11464600265026093
0.015702323988080025 0.03790877386927605 0.11464600265026093
0.008004962466657162 0.0402437224984169 0.11464600265026093
-9.319526483864138e-09 0.041032157838344574 0.11464600265026093
-0.008004979230463505 0.0402437224984169 0.11464600265026093
-0.015702323988080025 0.03790877386927605 0.11464600265026093
-0.02279624715447426 0.0341169573366642 0.11464600265026093
-0.029014112427830696 0.02901412546634674 0.11464600265026093
-0.03411699831485748 0.022796209901571274 0.11464600265026093
-0.03790876269340515 0.01570231094956398 0.11464600265026093
-0.040243763476610184 0.008004963397979736 0.11464600265026093
-0.04103215038776398 -2.109967489616338e-08 0.11464600265026093
-0.040243763476610184 -0.00800500251352787 0.11464600265026093
-0.03790876269340515 -0.01570233516395092 0.11464600265026093
-0.03411699831485748 -0.022796256467700005 0.11464600265026093
-0.029014112427830696 -0.02901412360370159 0.11464600265026093
-0.02279624715447426 -0.03411700576543808 0.11464600265026093
-0.015702299773693085 -0.03790877386927605 0.11464600265026093
-0.008004955016076565 -0.0402437224984169 0.11464600265026093
2.8181858624520828e-08 -0.041032157838344574 0.11464600265026093
0.008005010895431042 -0.0402437224984169 0.11464600265026093
0.015702348202466965 -0.03790877386927605 0.11464600265026093
0.02279626950621605 -0.0341169573366642 0.11464600265026093
0.029014136642217636 -0.02901407890021801 0.11464600265026093
0.03411701321601868 -0.022796209901571274 0.11464600265026093
0.03790878504514694 -0.01570226438343525 0.11464600265026093
0.0402437299489975 -0.008004918694496155 0.11464600265026093
0.03516604006290436 0.014566246420145035 -0.023605257272720337
0.03164860978722572 0.021146945655345917 -0.023605257272720337
0.031648650765419006 -0.021146927028894424 -0.023605257272720337
0.03516608849167824 -0.01456622313708067 -0.023605257272720337
-0.03806350380182266 -2.8745947844299735e-08 -0.023605257272720337
-0.03733215481042862 -0.0074258544482290745 -0.023605257272720337
0.026914922520518303 0.026914959773421288 -0.023605257272720337
0.03733210265636444 -0.007425776682794094 -0.023605257272720337
-0.03516609966754913 -0.014566287398338318 -0.023605257272720337
0.02114691212773323 0.031648602336645126 -0.023605257272720337
0.038063451647758484 -1.5435485778425573e-08 -0.023605257272720337
-0.0316486619412899 -0.021146969869732857 -0.023605257272720337
0.014566253870725632 0.03516608104109764 -0.023605257272720337
-0.026914970949292183 -0.02691497653722763 -0.023605257272720337
0.0074257939122617245 0.037332095205783844 -0.023605257272720337
-0.02114696241915226 -0.0316486656665802 -0.023605257272720337
-2.2222879536570872e-08 0.038063496351242065 -0.023605257272720337
-0.014566260389983654 -0.03516609966754913 -0.023605257272720337
-0.0074258362874388695 0.037332095205783844 -0.023605257272720337
-0.007425813470035791 -0.037332113832235336 -0.023605257272720337
-0.01456628367304802 0.03516608104109764 -0.023605257272720337
1.2565313234347286e-08 -0.03806351125240326 -0.023605257272720337
-0.02114696241915226 0.031648602336645126 -0.023605257272720337
0.007425838615745306 -0.037332113832235336 -0.023605257272720337
-0.026914970949292183 0.026914959773421288 -0.023605257272720337
0.014566275291144848 -0.03516609966754913 -0.023605257272720337
-0.0316486619412899 0.021146904677152634 -0.023605257272720337
0.021146954968571663 -0.03164862468838692 -0.023605257272720337
-0.03516609966754913 0.014566246420145035 -0.023605257272720337
0.03733210265636444 0.0074257999658584595 -0.023605257272720337
0.026914967224001884 -0.02691493183374405 -0.023605257272720337
-0.03733215481042862 0.0074257985688745975 -0.023605257272720337
0.01990468241274357 3.9932882001103565e-10 -0.030721141025424004
0.019522232934832573 0.0038832114078104496 -0.030721141025424004
0.018389524891972542 0.007617195136845112 -0.030721141025424004
0.01655014231801033 0.011058468371629715 -0.030721141025424004
0.01407473161816597 0.01407475583255291 -0.030721141025424004
0.011058446019887924 0.01655014045536518 -0.030721141025424004
0.007617196999490261 0.018389549106359482 -0.030721141025424004
0.00388320698402822 0.019522231072187424 -0.030721141025424004
-4.62235272280509e-09 0.01990470290184021 -0.030721141025424004
-0.0038832153659313917 0.019522231072187424 -0.030721141025424004
-0.007617197930812836 0.018389549106359482 -0.030721141025424004
-0.011058459058403969 0.01655014045536518 -0.030721141025424004
-0.014074745588004589 0.01407475583255291 -0.030721141025424004
-0.016550155356526375 0.011058446019887924 -0.030721141025424004
-0.018389543518424034 0.007617195136845112 -0.030721141025424004
-0.019522245973348618 0.0038832109421491623 -0.030721141025424004
-0.019904693588614464 -6.561170273755579e-09 -0.030721141025424004
-0.019522245973348618 -0.0038832237478345633 -0.030721141025424004
-0.018389543518424034 -0.007617199793457985 -0.030721141025424004
-0.016550155356526375 -0.011058460921049118 -0.030721141025424004
-0.014074745588004589 -0.014074748381972313 -0.030721141025424004
-0.011058459058403969 -0.016550157219171524 -0.030721141025424004
-0.007617185823619366 -0.018389543518424034 -0.030721141025424004
-0.0038832034915685654 -0.019522223621606827 -0.030721141025424004
1.3569592560713772e-08 -0.019904695451259613 -0.030721141025424004
0.003883230732753873 -0.019522223621606827 -0.030721141025424004
0.007617208641022444 -0.018389543518424034 -0.030721141025424004
0.01105846930295229 -0.016550133004784584 -0.030721141025424004
0.014074756763875484 -0.014074726030230522 -0.030721141025424004
0.016550162807106972 -0.011058437637984753 -0.030721141025424004
0.018389549106359482 -0.007617164868861437 -0.030721141025424004
0.019522232934832573 -0.0038831825368106365 -0.030721141025424004
0.009721307083964348 2.4580228963344553e-09 -0.030721141025424004
0.009534521028399467 0.0018965353956446052 -0.030721141025424004
0.008981313556432724 0.003720185486599803 -0.030721141025424004
0.008082970976829529 0.0054008797742426395 -0.030721141025424004
0.00687399972230196 0.0068740141578018665 -0.030721141025424004
0.005400866270065308 0.008082972839474678 -0.030721141025424004
0.0037201850209385157 0.008981328457593918 -0.030721141025424004
0.001896530855447054 0.009534522891044617 -0.030721141025424004
-2.2799244714377664e-09 0.009721317328512669 -0.030721141025424004
-0.001896534813567996 0.009534522891044617 -0.030721141025424004
-0.0037201850209385157 0.008981328457593918 -0.030721141025424004
-0.0054008737206459045 0.008082972839474678 -0.030721141025424004
-0.00687400670722127 0.0068740141578018665 -0.030721141025424004
-0.0080829793587327 0.005400868132710457 -0.030721141025424004
-0.00898132286965847 0.003720185486599803 -0.030721141025424004
-0.009534526616334915 0.001896534813567996 -0.030721141025424004
-0.009721310809254646 -9.414202750690492e-10 -0.030721141025424004
-0.009534526616334915 -0.001896536792628467 -0.030721141025424004
-0.00898132286965847 -0.0037201843224465847 -0.030721141025424004
-0.0080829793587327 -0.005400871858000755 -0.030721141025424004
-0.00687400670722127 -0.006874003913253546 -0.030721141025424004
-0.0054008737206459045 -0.008082976564764977 -0.030721141025424004
-0.0037201789673417807 -0.008981319144368172 -0.030721141025424004
-0.0018965291092172265 -0.009534514509141445 -0.030721141025424004
6.604879310145861e-09 -0.009721308946609497 -0.030721141025424004
0.001896542264148593 -0.009534514509141445 -0.030721141025424004
0.0037201903760433197 -0.008981319144368172 -0.030721141025424004
0.00540087791159749 -0.008082964457571507 -0.030721141025424004
0.006874011363834143 -0.006873994134366512 -0.030721141025424004
0.008082982152700424 -0.005400860216468573 -0.030721141025424004
0.008981325663626194 -0.003720168024301529 -0.030721141025424004
0.009534521028399467 -0.0018965165363624692 -0.030721141025424004
0.028426263481378555 0.018993843346834183 -0.024456210434436798
0.031585607677698135 -0.013083145022392273 -0.024456210434436798
-0.03353113681077957 -0.006669782102108002 -0.024456210434436798
0.02417454496026039 0.024174578487873077 -0.024456210434436798
0.03353108838200569 -0.0066697122529149055 -0.024456210434436798
-0.03158562257885933 -0.013083203695714474 -0.024456210434436798
0.018993809819221497 0.028426259756088257 -0.024456210434436798
0.03418797254562378 -1.4406037252001624e-08 -0.024456210434436798
-0.028426313772797585 -0.018993863835930824 -0.024456210434436798
0.013083171099424362 0.03158560395240784 -0.024456210434436798
-0.024174589663743973 -0.02417459525167942 -0.024456210434436798
0.006669726688414812 0.033531080931425095 -0.024456210434436798
-0.018993860110640526 -0.028426319360733032 -0.024456210434436798
-2.1347000611626754e-08 0.03418801352381706 -0.024456210434436798
-0.013083179481327534 -0.03158561885356903 -0.024456210434436798
-0.0066697667352855206 0.033531080931425095 -0.024456210434436798
-0.006669746246188879 -0.03353109583258629 -0.024456210434436798
-0.0130831990391016 0.03158560395240784 -0.024456210434436798
9.899168595950414e-09 -0.034188032150268555 -0.024456210434436798
-0.018993860110640526 0.028426259756088257 -0.024456210434436798
0.006669766269624233 -0.03353109583258629 -0.024456210434436798
-0.024174589663743973 0.024174578487873077 -0.024456210434436798
0.013083191588521004 -0.03158561885356903 -0.024456210434436798
-0.028426313772797585 0.018993806093931198 -0.024456210434436798
0.01899385266005993 -0.0284262802451849 -0.024456210434436798
-0.03158562257885933 0.01308316458016634 -0.024456210434436798
0.03353108838200569 0.00666973227635026 -0.024456210434436798
0.024174584075808525 -0.024174556136131287 -0.024456210434436798
-0.03353113681077957 0.006669730879366398 -0.024456210434436798
0.03158556669950485 0.01308316458016634 -0.024456210434436798
0.02842630259692669 -0.01899382658302784 -0.024456210434436798
-0.03418802469968796 -2.6361281157960548e-08 -0.024456210434436798
0.026199616491794586 0.01750604622066021 -0.025351915508508682
0.029111485928297043 -0.01205832976847887 -0.025351915508508682
-0.030904622748494148 -0.006147329695522785 -0.02535191737115383
0.02228093333542347 0.022280970588326454 -0.025351915508508682
0.03090457245707512 -0.006147265899926424 -0.025351915508508682
-0.029111498966813087 -0.012058382853865623 -0.02535191737115383
0.017506008967757225 0.026199616491794586 -0.02535191737115383
0.03151000291109085 -9.565971126335171e-09 -0.02535191737115383
-0.026199661195278168 -0.017506057396531105 -0.025351915508508682
0.012058356776833534 0.029111485928297043 -0.025351915508508682
-0.02228098176419735 -0.0222809799015522 -0.02535191737115383
0.006147281266748905 0.030904576182365417 -0.02535191737115383
-0.017506059259176254 -0.026199663057923317 -0.025351915508508682
-2.0916619547506343e-08 0.031510043889284134 -0.02535191737115383
-0.01205836609005928 -0.02911149151623249 -0.025351915508508682
-0.006147321313619614 0.030904576182365417 -0.02535191737115383
-0.006147301755845547 -0.030904579907655716 -0.02535191737115383
-0.012058385647833347 0.029111485928297043 -0.025351915508508682
7.882041686002594e-09 -0.03151005506515503 -0.025351915508508682
-0.017506057396531105 0.026199616491794586 -0.02535191737115383
0.0061473180539906025 -0.030904579907655716 -0.02535191737115383
-0.02228098176419735 0.022280970588326454 -0.025351915508508682
0.012058374471962452 -0.02911149151623249 -0.02535191737115383
-0.026199661195278168 0.017506012693047523 -0.02535191737115383
0.017506049945950508 -0.026199623942375183 -0.02535191737115383
-0.029111500829458237 0.01205835584551096 -0.02535191737115383
0.03090457245707512 0.006147291511297226 -0.025351915508508682
0.022280972450971603 -0.022280944511294365 -0.025351915508508682
-0.030904622748494148 0.006147290579974651 -0.025351915508508682
0.02911144681274891 0.01205835584551096 -0.02535191737115383
0.026199648156762123 -0.01750602386891842 -0.02535191737115383
-0.03151005133986473 -2.058472858834648e-08 -0.02535191737115383
