0.04730518162250519 -0.07216212898492813 -0.024026405066251755
0.04730517789721489 0.06898120790719986 -0.024026405066251755
-0.05164612829685211 -0.07216212898492813 -0.024026405066251755
-0.05164613574743271 0.06898120790719986 -0.024026405066251755
0.04730518162250519 -0.04344015195965767 -0.024026405066251755
0.04730518162250519 -0.01604071632027626 -0.024026405066251755
0.04730518162250519 0.012187947519123554 -0.024026405066251755
0.04730517789721489 0.040969423949718475 -0.024026405066251755
-0.05164613574743271 0.04096941649913788 -0.024026405066251755
-0.05164613202214241 0.01218794472515583 -0.024026405066251755
-0.05164613202214241 -0.01604072004556656 -0.024026405066251755
-0.05164612829685211 -0.043440163135528564 -0.024026405066251755
-0.01904658041894436 -0.07216212898492813 -0.024026405066251755
-0.011703001335263252 -0.07216212898492813 -0.024026405066251755
0.008087259717285633 -0.07216212898492813 -0.024026405066251755
0.014047874137759209 -0.07216212898492813 -0.024026405066251755
0.01404787041246891 0.06898120790719986 -0.024026405066251755
0.00808725319802761 0.06898120790719986 -0.024026405066251755
-0.011703007854521275 0.06898120790719986 -0.024026405066251755
-0.019046587869524956 0.06898120790719986 -0.024026405066251755
0.014047874137759209 -0.04344015568494797 -0.024026405066251755
0.008087258785963058 -0.04344015568494797 -0.024026405066251755
-0.011703002266585827 -0.04344015568494797 -0.024026405066251755
-0.019046584144234657 -0.04344015568494797 -0.024026405066251755
0.01404787041246891 -0.01604072004556656 -0.024026405066251755
0.008087257854640484 -0.01604072004556656 -0.024026405066251755
-0.011703004129230976 -0.01604072004556656 -0.024026405066251755
-0.019046584144234657 -0.01604072004556656 -0.024026405066251755
0.01404787041246891 0.01218794658780098 -0.024026405066251755
0.008087255991995335 0.01218794658780098 -0.024026405066251755
-0.011703005991876125 0.012187945656478405 -0.024026405066251755
-0.019046584144234657 0.01218794472515583 -0.024026405066251755
0.01404787041246891 0.04096942022442818 -0.024026405066251755
0.00808725506067276 0.04096942022442818 -0.024026405066251755
-0.0117030069231987 0.04096942022442818 -0.024026405066251755
-0.019046587869524956 0.04096942022442818 -0.024026405066251755
0.05804125592112541 -0.08491260558366776 0.015075728297233582
0.05804124101996422 0.0849028155207634 0.015075728297233582
-0.06238522380590439 -0.08491260558366776 0.015075728297233582
-0.062385231256484985 0.0849028155207634 0.015075728297233582
0.05804125592112541 -0.05035601183772087 0.015075728297233582
0.058041248470544815 -0.01739060878753662 0.015075728297233582
0.058041248470544815 0.01657246984541416 0.015075728297233582
0.05804124101996422 0.051200661808252335 0.015075728297233582
-0.062385231256484985 0.05120065063238144 0.015075728297233582
-0.06238522380590439 0.016572467982769012 0.015075728297233582
-0.06238522380590439 -0.01739061251282692 0.015075728297233582
-0.06238522380590439 -0.050356023013591766 0.015075728297233582
-0.022710680961608887 -0.08491260558366776 0.015075728297233582
-0.013773337006568909 -0.08491260558366776 0.015075728297233582
0.010311957448720932 -0.08491260558366776 0.015075728297233582
0.01756618730723858 -0.08491260558366776 0.015075728297233582
0.017566179856657982 0.0849028155207634 0.015075728297233582
0.010311949998140335 0.0849028155207634 0.015075728297233582
-0.013773344457149506 0.0849028155207634 0.015075728297233582
-0.022710688412189484 0.0849028155207634 0.015075728297233582
0.05804125592112541 -0.08491260558366776 0.02099040523171425
0.05804124101996422 0.0849028155207634 0.02099040523171425
-0.06238522380590439 -0.08491260558366776 0.02099040523171425
-0.062385231256484985 0.0849028155207634 0.02099040523171425
0.05804125592112541 -0.05035601183772087 0.02099040523171425
0.058041248470544815 -0.01739060878753662 0.02099040523171425
0.058041248470544815 0.01657246984541416 0.02099040523171425
0.05804124101996422 0.051200661808252335 0.02099040523171425
-0.062385231256484985 0.05120065063238144 0.02099040523171425
-0.06238522380590439 0.016572467982769012 0.02099040523171425
-0.06238522380590439 -0.01739061251282692 0.02099040523171425
-0.06238522380590439 -0.050356023013591766 0.02099040523171425
-0.022710680961608887 -0.08491260558366776 0.02099040523171425
-0.013773337006568909 -0.08491260558366776 0.02099040523171425
0.010311957448720932 -0.08491260558366776 0.02099040523171425
0.01756618730723858 -0.08491260558366776 0.02099040523171425
0.017566179856657982 0.0849028155207634 0.02099040523171425
0.010311949998140335 0.0849028155207634 0.02099040523171425
-0.013773344457149506 0.0849028155207634 0.02099040523171425
-0.022710688412189484 0.0849028155207634 0.02099040523171425
0.054864075034856796 -0.08043155074119568 0.014434672892093658
0.054864075034856796 -0.04769860953092575 0.014434676617383957
0.009653580375015736 -0.08043155074119568 0.014434676617383957
0.016524985432624817 -0.08043155074119568 0.014434672892093658
0.0548640713095665 -0.01647287607192993 0.014434672892093658
0.0548640713095665 0.08042225241661072 0.014434676617383957
0.01652497798204422 0.08042225241661072 0.014434672892093658
0.0548640713095665 0.01569788157939911 0.014434672892093658
0.009653571993112564 0.08042225241661072 0.014434672892093658
0.0548640713095665 0.04849865287542343 0.014434672892093658
-0.013160678558051586 0.08042225241661072 0.014434672892093658
-0.059207186102867126 0.08042225241661072 0.014434676617383957
-0.059207186102867126 0.048498645424842834 0.014434676617383957
-0.02162637561559677 0.08042225241661072 0.014434676617383957
-0.059207186102867126 -0.08043155074119568 0.014434676617383957
-0.021626368165016174 -0.08043155074119568 0.014434676617383957
-0.059207186102867126 0.015697874128818512 0.014434672892093658
-0.01316067110747099 -0.08043155074119568 0.014434676617383957
-0.059207186102867126 -0.01647287979722023 0.014434676617383957
-0.059207186102867126 -0.04769861698150635 0.014434676617383957
0.054804421961307526 -0.047648705542087555 0.013813377358019352
0.016505436971783638 -0.08034741133451462 0.013813377358019352
0.05480441451072693 -0.016455644741654396 0.013813373632729053
0.01650542952120304 0.08033811300992966 0.013813373632729053
0.05480441451072693 0.01568146049976349 0.013813373632729053
0.009641209617257118 0.08033811300992966 0.013813373632729053
0.05480441451072693 0.04844791442155838 0.013813373632729053
-0.013149174861609936 0.08033811300992966 0.013813377358019352
-0.059147510677576065 0.04844791069626808 0.013813377358019352
-0.021606015041470528 0.08033811300992966 0.013813377358019352
-0.02160600945353508 -0.08034741133451462 0.013813377358019352
-0.059147510677576065 0.01568145491182804 0.013813373632729053
-0.013149166479706764 -0.08034741133451462 0.013813377358019352
-0.059147510677576065 -0.016455648466944695 0.013813377358019352
0.05480441823601723 -0.08034741133451462 0.013813377358019352
0.00964121799916029 -0.08034741133451462 0.013813377358019352
0.05480441451072693 0.08033811300992966 0.013813377358019352
-0.059147510677576065 0.08033811300992966 0.013813377358019352
-0.059147510677576065 -0.08034741133451462 0.013813377358019352
-0.059147510677576065 -0.04764871299266815 0.013813377358019352
-0.06238522380590439 -0.050356023013591766 0.015510336495935917
-0.06238522380590439 -0.08491260558366776 0.015510336495935917
0.010311949998140335 0.0849028155207634 0.015510336495935917
-0.013773344457149506 0.0849028155207634 0.015510336495935917
-0.06238522380590439 -0.01739061251282692 0.015510336495935917
0.05804125592112541 -0.08491260558366776 0.015510336495935917
0.05804125592112541 -0.05035601183772087 0.015510336495935917
-0.022710688412189484 0.0849028155207634 0.015510336495935917
-0.022710680961608887 -0.08491260558366776 0.015510336495935917
0.058041248470544815 -0.01739060878753662 0.015510336495935917
-0.013773337006568909 -0.08491260558366776 0.015510336495935917
0.058041248470544815 0.01657246984541416 0.015510336495935917
0.010311957448720932 -0.08491260558366776 0.015510336495935917
0.05804124101996422 0.051200661808252335 0.015510336495935917
0.01756618730723858 -0.08491260558366776 0.015510336495935917
-0.062385231256484985 0.0849028155207634 0.015510336495935917
-0.062385231256484985 0.05120065063238144 0.015510336495935917
0.05804124101996422 0.0849028155207634 0.015510336495935917
0.017566179856657982 0.0849028155207634 0.015510336495935917
-0.06238522380590439 0.016572467982769012 0.015510336495935917
0.05804125592112541 -0.08491260558366776 0.02099040523171425
0.05804124101996422 0.0849028155207634 0.02099040523171425
-0.06238522380590439 -0.08491260558366776 0.02099040523171425
-0.062385231256484985 0.0849028155207634 0.02099040523171425
0.05804125592112541 -0.05035601183772087 0.02099040523171425
0.058041248470544815 -0.01739060878753662 0.02099040523171425
0.058041248470544815 0.01657246984541416 0.02099040523171425
0.05804124101996422 0.051200661808252335 0.02099040523171425
-0.062385231256484985 0.05120065063238144 0.02099040523171425
-0.06238522380590439 0.016572467982769012 0.02099040523171425
-0.06238522380590439 -0.01739061251282692 0.02099040523171425
-0.06238522380590439 -0.050356023013591766 0.02099040523171425
-0.022710680961608887 -0.08491260558366776 0.02099040523171425
-0.013773337006568909 -0.08491260558366776 0.02099040523171425
0.010311957448720932 -0.08491260558366776 0.02099040523171425
0.01756618730723858 -0.08491260558366776 0.02099040523171425
0.017566179856657982 0.0849028155207634 0.02099040523171425
0.010311949998140335 0.0849028155207634 0.02099040523171425
-0.013773344457149506 0.0849028155207634 0.02099040523171425
-0.022710688412189484 0.0849028155207634 0.02099040523171425
0.05428794398903847 -0.08389768749475479 0.02099040523171425
0.05428793653845787 0.0838884487748146 0.02099040523171425
-0.05863090604543686 -0.08389768749475479 0.02099040523171425
-0.058630913496017456 0.0838884487748146 0.02099040523171425
0.05428793653845787 -0.047216735780239105 0.02099040523171425
0.05428793281316757 -0.01630646176636219 0.02099040523171425
0.05428793281316757 0.015539289452135563 0.02099040523171425
0.054287929087877274 0.04800868779420853 0.02099040523171425
-0.05863090977072716 0.04800868034362793 0.02099040523171425
-0.05863090604543686 0.015539285726845264 0.02099040523171425
-0.05863090604543686 -0.01630646549165249 0.02099040523171425
-0.05863089859485626 -0.0472167432308197 0.02099040523171425
-0.02142975479364395 -0.08389768749475479 0.02099040523171425
-0.01304958388209343 -0.08389768749475479 0.02099040523171425
0.009534187614917755 -0.08389768749475479 0.02099040523171425
0.01633617654442787 -0.08389768749475479 0.02099040523171425
0.016336169093847275 0.0838884487748146 0.02099040523171425
0.009534179233014584 0.0838884487748146 0.02099040523171425
-0.013049591332674026 0.0838884487748146 0.02099040523171425
-0.02142976224422455 0.0838884487748146 0.02099040523171425
0.04868829622864723 -0.0755755752325058 0.02099040523171425
0.048688288778066635 0.07556723058223724 0.02099040523171425
-0.05302971601486206 -0.0755755752325058 0.02099040523171425
-0.05302972346544266 0.07556723058223724 0.02099040523171425
0.04868828505277634 -0.04253315553069115 0.02099040523171425
0.04868828505277634 -0.014688991010189056 0.02099040523171425
0.04868828505277634 0.013997861184179783 0.02099040523171425
0.04868828132748604 0.043246496468782425 0.02099040523171425
-0.05302971601486206 0.043246492743492126 0.02099040523171425
-0.05302971228957176 0.013997857458889484 0.02099040523171425
-0.05302971228957176 -0.014688994735479355 0.02099040523171425
-0.05302971228957176 -0.042533159255981445 0.02099040523171425
-0.01951868087053299 -0.0755755752325058 0.02099040523171425
-0.011969772167503834 -0.0755755752325058 0.02099040523171425
0.008373827673494816 -0.0755755752325058 0.02099040523171425
0.01450110413134098 -0.0755755752325058 0.02099040523171425
0.014501096680760384 0.07556723058223724 0.02099040523171425
0.008373823016881943 0.07556723058223724 0.02099040523171425
-0.011969777755439281 0.07556723058223724 0.02099040523171425
-0.019518688321113586 0.07556723058223724 0.02099040523171425
0.05077122524380684 -0.07867120206356049 0.02099040523171425
0.05077121779322624 0.07866251468658447 0.02099040523171425
-0.05511322617530823 -0.07867120206356049 0.02099040523171425
-0.055113233625888824 0.07866251468658447 0.02099040523171425
0.050771214067935944 -0.044275328516960144 0.02099040523171425
0.050771214067935944 -0.01529065240174532 0.02099040523171425
0.050771214067935944 0.014571232721209526 0.02099040523171425
0.050771210342645645 0.04501791298389435 0.02099040523171425
-0.05511322617530823 0.04501790553331375 0.02099040523171425
-0.05511322245001793 0.014571228995919228 0.02099040523171425
-0.05511322245001793 -0.015290655195713043 0.02099040523171425
-0.05511322245001793 -0.04427533596754074 0.02099040523171425
-0.020229555666446686 -0.07867120206356049 0.02099040523171425
-0.01237143948674202 -0.07867120206356049 0.02099040523171425
0.008805448189377785 -0.07867120206356049 0.02099040523171425
0.015183701179921627 -0.07867120206356049 0.02099040523171425
0.015183694660663605 0.07866251468658447 0.02099040523171425
0.008805442601442337 0.07866251468658447 0.02099040523171425
-0.012371445074677467 0.07866251468658447 0.02099040523171425
-0.020229563117027283 0.07866251468658447 0.02099040523171425
0.04610280692577362 -0.07044682651758194 -0.018020592629909515
0.046102795749902725 0.0672660544514656 -0.018020592629909515
-0.05044351518154144 -0.07044682651758194 -0.018020592629909515
-0.05044352263212204 0.0672660544514656 -0.018020592629909515
0.04610280320048332 -0.042422931641340256 -0.018020592629909515
0.04610280320048332 -0.015689441934227943 -0.018020592629909515
0.04610280320048332 0.011853132396936417 -0.018020592629909515
0.046102795749902725 0.039935074746608734 -0.018020592629909515
-0.05044352263212204 0.039935071021318436 -0.018020592629909515
-0.05044351890683174 0.011853128671646118 -0.018020592629909515
-0.05044351890683174 -0.015689443796873093 -0.018020592629909515
-0.05044351890683174 -0.04242293909192085 -0.018020592629909515
-0.018636297434568405 -0.07044682651758194 -0.018020592629909515
-0.011471200734376907 -0.07044682651758194 -0.018020592629909515
0.007838062942028046 -0.07044682651758194 -0.018020592629909515
0.013653809204697609 -0.07044682651758194 -0.018020592629909515
0.013653798028826714 0.0672660544514656 -0.018020592629909515
0.007838056422770023 0.0672660544514656 -0.018020592629909515
-0.01147120539098978 0.0672660544514656 -0.018020592629909515
-0.018636301159858704 0.0672660544514656 -0.018020592629909515
0.04124486818909645 -0.06351618468761444 -0.018020592629909515
0.041244860738515854 0.0603361614048481 -0.018020592629909515
-0.04558425024151802 -0.06351618468761444 -0.018020592629909515
-0.04558425769209862 0.0603361614048481 -0.018020592629909515
0.04124486446380615 -0.038312844932079315 -0.018020592629909515
0.04124486446380615 -0.01427002064883709 -0.018020592629909515
0.04124486446380615 0.01050044409930706 -0.018020592629909515
0.04124486446380615 0.03575599938631058 -0.018020592629909515
-0.04558425396680832 0.03575599566102028 -0.018020592629909515
-0.04558425396680832 0.010500440374016762 -0.018020592629909515
-0.04558425396680832 -0.014270023442804813 -0.018020592629909515
-0.04558425396680832 -0.03831285610795021 -0.018020592629909515
-0.016978371888399124 -0.06351618468761444 -0.018020592629909515
-0.010534427128732204 -0.06351618468761444 -0.018020592629909515
0.006831396371126175 -0.06351618468761444 -0.018020592629909515
0.012061797082424164 -0.06351618468761444 -0.018020592629909515
0.012061791494488716 0.0603361614048481 -0.018020592629909515
0.006831392180174589 0.0603361614048481 -0.018020592629909515
-0.010534431785345078 0.0603361614048481 -0.018020592629909515
-0.016978377476334572 0.0603361614048481 -0.018020592629909515
0.028217202052474022 -0.04493008181452751 -0.018020592629909515
0.028217194601893425 0.041752077639102936 -0.018020592629909515
-0.03255303204059601 -0.04493008181452751 -0.018020592629909515
-0.032553039491176605 0.041752077639102936 -0.018020592629909515
0.028217198327183723 -0.027290694415569305 -0.018020592629909515
0.028217198327183723 -0.010463526472449303 -0.018020592629909515
0.028217198327183723 0.006872901227325201 -0.018020592629909515
0.028217198327183723 0.024548839777708054 -0.018020592629909515
-0.03255303576588631 0.024548836052417755 -0.018020592629909515
-0.03255303576588631 0.006872899364680052 -0.018020592629909515
-0.03255303576588631 -0.010463528335094452 -0.018020592629909515
-0.03255303576588631 -0.027290698140859604 -0.018020592629909515
-0.01253226026892662 -0.04493008181452751 -0.018020592629909515
-0.008022254332900047 -0.04493008181452751 -0.018020592629909515
0.004131791181862354 -0.04493008181452751 -0.018020592629909515
0.007792461197823286 -0.04493008181452751 -0.018020592629909515
0.007792457472532988 0.041752077639102936 -0.018020592629909515
0.004131787922233343 0.041752077639102936 -0.018020592629909515
-0.008022258058190346 0.041752077639102936 -0.018020592629909515
-0.012532263062894344 0.041752077639102936 -0.018020592629909515
0.017684509977698326 -0.029903478920459747 -0.018020592629909515
0.017684506252408028 0.026727110147476196 -0.018020592629909515
-0.022017477080225945 -0.029903478920459747 -0.018020592629909515
-0.022017480805516243 0.026727110147476196 -0.018020592629909515
0.017684509977698326 -0.018379442393779755 -0.018020592629909515
0.017684509977698326 -0.007386029232293367 -0.018020592629909515
0.017684509977698326 0.003940085414797068 -0.018020592629909515
0.017684509977698326 0.015488004311919212 -0.018020592629909515
-0.022017480805516243 0.015488004311919212 -0.018020592629909515
-0.022017480805516243 0.003940083552151918 -0.018020592629909515
-0.022017480805516243 -0.007386030629277229 -0.018020592629909515
-0.022017480805516243 -0.018379442393779755 -0.018020592629909515
-0.008937643840909004 -0.029903478920459747 -0.018020592629909515
-0.005991197656840086 -0.029903478920459747 -0.018020592629909515
0.0019491991261020303 -0.029903478920459747 -0.018020592629909515
0.00434076227247715 -0.029903478920459747 -0.018020592629909515
0.004340759478509426 0.026727110147476196 -0.018020592629909515
0.0019491955172270536 0.026727110147476196 -0.018020592629909515
-0.00599120045080781 0.026727110147476196 -0.018020592629909515
-0.008937647566199303 0.026727110147476196 -0.018020592629909515
0.005552968475967646 -0.012595854699611664 -0.018020592629909515
0.005552967078983784 0.009421356953680515 -0.018020592629909515
-0.009882628917694092 -0.012595854699611664 -0.018020592629909515
-0.009882630780339241 0.009421356953680515 -0.018020592629909515
0.005552967544645071 -0.008115462958812714 -0.018020592629909515
0.005552967544645071 -0.00384137243963778 -0.018020592629909515
0.005552967544645071 0.0005620693555101752 -0.018020592629909515
0.005552967544645071 0.005051745101809502 -0.018020592629909515
-0.009882629849016666 0.005051744170486927 -0.018020592629909515
-0.009882629849016666 0.0005620684823952615 -0.018020592629909515
-0.009882629849016666 -0.003841373370960355 -0.018020592629909515
-0.009882629849016666 -0.008115464821457863 -0.018020592629909515
-0.004797367379069328 -0.012595854699611664 -0.018020592629909515
-0.003651828970760107 -0.012595854699611664 -0.018020592629909515
-0.0005647087236866355 -0.012595854699611664 -0.018020592629909515
0.0003650991420727223 -0.012595854699611664 -0.018020592629909515
0.00036509803612716496 0.009421356953680515 -0.018020592629909515
-0.0005647095968015492 0.009421356953680515 -0.018020592629909515
-0.0036518294364213943 0.009421356953680515 -0.018020592629909515
-0.004797368310391903 0.009421356953680515 -0.018020592629909515
0.04843294993042946 -0.044394366443157196 -0.017334358766674995
0.01441742293536663 -0.0737711489200592 -0.017334358766674995
0.04843294247984886 -0.016370272263884544 -0.017334355041384697
0.014417414553463459 0.07059001922607422 -0.017334358766674995
0.04843294247984886 0.012501955032348633 -0.017334355041384697
0.008320909924805164 0.07059001922607422 -0.017334355041384697
0.04843294247984886 0.04193960130214691 -0.017334355041384697
-0.011920535936951637 0.07059001922607422 -0.017334355041384697
-0.052774298936128616 0.041939593851566315 -0.017334355041384697
-0.019431540742516518 0.07059001922607422 -0.017334355041384697
-0.01943153329193592 -0.0737711489200592 -0.017334355041384697
-0.05277429521083832 0.012501952238380909 -0.017334355041384697
-0.011920529417693615 -0.0737711489200592 -0.017334355041384697
-0.05277429521083832 -0.016370275989174843 -0.017334355041384697
0.04843294620513916 -0.0737711489200592 -0.017334358766674995
0.00832091923803091 -0.0737711489200592 -0.017334358766674995
0.04843294247984886 0.07059001922607422 -0.017334355041384697
-0.052774298936128616 0.07059001922607422 -0.017334355041384697
-0.05277429148554802 -0.0737711489200592 -0.017334355041384697
-0.05277429148554802 -0.04439437389373779 -0.017334358766674995
