0.002991605084389448 0.0029916020575910807 0.0032165423035621643
0.0019513999577611685 0.0019514282466843724 -0.020860260352492332
0.003236405085772276 0.003236401593312621 -0.06788556277751923
0.030301036313176155 0.020246462896466255 0.09102681279182434
0.03335873782634735 0.02228955179452896 0.060160890221595764
0.03046954609453678 0.020359057933092117 0.031791023910045624
0.02290019951760769 0.015301416628062725 0.01591472700238228
0.00351775623857975 0.0023504863493144512 0.0032165423035621643
0.00229461002163589 0.0015332262264564633 -0.020860260352492332
0.003805610118433833 0.002542824251577258 -0.06788556277751923
0.033668696880340576 0.013946003280580044 0.09102681279182434
0.037066228687763214 0.015353308990597725 0.060160890221595764
0.03385593369603157 0.014023561030626297 0.031791023910045624
0.02544533647596836 0.010539795272052288 0.01591472700238228
0.003908719401806593 0.001619042013771832 0.0032165423035621643
0.0025496375747025013 0.0010561022209003568 -0.020860260352492332
0.004228566307574511 0.0017515263753011823 -0.06788556277751923
0.03574250265955925 0.0071096098981797695 0.09102681279182434
0.03934929892420769 0.007827047258615494 0.060160890221595764
0.035941269248723984 0.00714914733543992 0.031791023910045624
0.027012623846530914 0.005373133812099695 0.01591472700238228
0.004149476531893015 0.0008253792184405029 0.0032165423035621643
0.002706684172153473 0.0005383932148106396 -0.020860260352492332
0.004489024169743061 0.0008929193136282265 -0.06788556277751923
0.03644273057579994 -2.900429452168396e-09 0.09102681279182434
0.0401201955974102 -3.772357093367873e-09 0.060160890221595764
0.036645397543907166 -3.32464034080715e-09 0.031791023910045624
0.027541831135749817 -1.4318116470235509e-08 0.01591472700238228
0.0042307679541409016 -2.4447268653915444e-09 0.0032165423035621643
0.0027597108855843544 -6.231800409040034e-09 -0.020860260352492332
0.004576967563480139 -2.6069066905165528e-09 -0.06788556277751923
0.03574250265955925 -0.0071096159517765045 0.09102681279182434
0.03934929892420769 -0.00782705470919609 0.060160890221595764
0.035941269248723984 -0.007149154786020517 0.031791023910045624
0.027012625709176064 -0.005373162683099508 0.01591472700238228
0.004149476531893015 -0.0008253841078840196 0.0032165423035621643
0.002706684172153473 -0.0005384056712500751 -0.020860260352492332
0.004489024169743061 -0.0008929243194870651 -0.06788556277751923
0.033668696880340576 -0.013946009799838066 0.09102681279182434
0.037066228687763214 -0.015353315509855747 0.060160890221595764
0.03385593369603157 -0.01402356754988432 0.031791023910045624
0.02544533647596836 -0.010539822280406952 0.01591472700238228
0.003908721264451742 -0.001619047368876636 0.0032165423035621643
0.0025496389716863632 -0.0010561150265857577 -0.020860260352492332
0.00422856817021966 -0.0017515321960672736 -0.06788556277751923
0.030301036313176155 -0.02024647407233715 0.09102681279182434
0.03335873782634735 -0.022289562970399857 0.060160890221595764
0.03046954609453678 -0.020359067246317863 0.031791023910045624
0.02290019951760769 -0.015301447361707687 0.01591472700238228
0.00351775623857975 -0.0023504907730966806 0.0032165423035621643
0.00229461002163589 -0.001533238566480577 -0.020860260352492332
0.003805610118433833 -0.002542829606682062 -0.06788556277751923
0.025768913328647614 -0.02576887421309948 0.09102681279182434
0.028369279578328133 -0.028369231149554253 0.060160890221595764
0.025912223383784294 -0.025912180542945862 0.031791023910045624
0.01947501301765442 -0.019475044682621956 0.01591472700238228
0.002991605084389448 -0.0029916069470345974 0.0032165423035621643
0.0019513999577611685 -0.0019514409359544516 -0.020860260352492332
0.003236405085772276 -0.003236407181248069 -0.06788556277751923
0.020246516913175583 -0.030300987884402275 0.09102681279182434
0.022289607673883438 -0.03335869312286377 0.060160890221595764
0.020359115675091743 -0.030469505116343498 0.031791023910045624
0.015301414765417576 -0.022900234907865524 0.01591472700238228
0.002350489143282175 -0.0035177581012248993 0.0032165423035621643
0.0015331980539485812 -0.0022946507669985294 -0.020860260352492332
0.0025428272783756256 -0.003805612912401557 -0.06788556277751923
0.013946057297289371 -0.03366865962743759 0.09102681279182434
0.015353362075984478 -0.037066198885440826 0.060160890221595764
0.014023615047335625 -0.033855900168418884 0.031791023910045624
0.010539787821471691 -0.025445371866226196 0.01591472700238228
0.0016190458554774523 -0.003908722661435604 0.0032165423035621643
0.0010560748632997274 -0.0025496776215732098 -0.020860260352492332
0.0017515309154987335 -0.0042285677045583725 -0.06788556277751923
0.0071096564643085 -0.03574245795607567 0.09102681279182434
0.0078270947560668 -0.0393492616713047 0.060160890221595764
0.00714919762685895 -0.0359412245452404 0.031791023910045624
0.005373124033212662 -0.027012662962079048 0.01591472700238228
0.0008253820124082267 -0.004149476997554302 0.0032165423035621643
0.0005383649840950966 -0.0027067232877016068 -0.020860260352492332
0.0008929220493882895 -0.004489023704081774 -0.06788556277751923
3.971169348915282e-08 -0.03644269332289696 0.09102681279182434
3.8200941077093375e-08 -0.04012015834450722 0.060160890221595764
4.20572305870337e-08 -0.03664535656571388 0.031791023910045624
-2.7129681612336753e-08 -0.0275418721139431 0.01591472700238228
-2.974245502662676e-11 -0.004230770282447338 0.0032165423035621643
-3.469486742346817e-08 -0.00275975139811635 -0.020860260352492332
-6.100641519735106e-11 -0.004576968029141426 -0.06788556277751923
-0.007109577767550945 -0.03574245050549507 0.09102681279182434
-0.007827017456293106 -0.039349257946014404 0.060160890221595764
-0.007149113342165947 -0.035941220819950104 0.031791023910045624
-0.0053731780499219894 -0.0270126573741436 0.01591472700238228
-0.0008253818959929049 -0.004149476997554302 0.0032165423035621643
-0.0005384344258345664 -0.0027067232877016068 -0.020860260352492332
-0.0008929222822189331 -0.004489023704081774 -0.06788556277751923
-0.01394597440958023 -0.033668652176856995 0.09102681279182434
-0.015353279188275337 -0.03706618770956993 0.060160890221595764
-0.014023525640368462 -0.03385588526725769 0.031791023910045624
-0.010539840906858444 -0.0254453644156456 0.01591472700238228
-0.0016190449241548777 -0.003908722661435604 0.0032165423035621643
-0.0010561435483396053 -0.0025496776215732098 -0.020860260352492332
-0.0017515296349301934 -0.0042285677045583725 -0.06788556277751923
-0.020246433094143867 -0.03030097857117653 0.09102681279182434
-0.02228952758014202 -0.03335868567228317 0.060160890221595764
-0.02035902440547943 -0.030469493940472603 0.031791023910045624
-0.01530146412551403 -0.022900225594639778 0.01591472700238228
-0.0023504893761128187 -0.0035177564714103937 0.0032165423035621643
-0.001533267553895712 -0.002294649835675955 -0.020860260352492332
-0.0025428279768675566 -0.0038056110497564077 -0.06788556277751923
-0.0257688257843256 -0.025768855586647987 0.09102681279182434
-0.028369193896651268 -0.02836921624839306 0.060160890221595764
-0.025912126526236534 -0.02591216005384922 0.031791023910045624
-0.01947505958378315 -0.01947503536939621 0.01591472700238228
-0.0029916062485426664 -0.002991604618728161 0.0032165423035621643
-0.0019514699233695865 -0.0019514396553859115 -0.020860260352492332
-0.0032364055514335632 -0.0032364048529416323 -0.06788556277751923
-0.030300945043563843 -0.02024645358324051 0.09102681279182434
-0.03335864469408989 -0.022289544343948364 0.060160890221595764
-0.03046944923698902 -0.02035905234515667 0.031791023910045624
-0.02290024422109127 -0.015301431529223919 0.01591472700238228
-0.003517755074426532 -0.0023504893761128187 0.0032165423035621643
-0.002294679172337055 -0.001533237169496715 -0.020860260352492332
-0.003805608721449971 -0.0025428275112062693 -0.06788556277751923
-0.03366860747337341 -0.01394598837941885 0.09102681279182434
-0.03706614300608635 -0.015353290364146233 0.060160890221595764
-0.03385584056377411 -0.014023544266819954 0.031791023910045624
-0.025445377454161644 -0.010539806447923183 0.01591472700238228
-0.003908718936145306 -0.0016190444584935904 0.0032165423035621643
-0.002549705794081092 -0.0010561132803559303 -0.020860260352492332
-0.004228564444929361 -0.001751529285684228 -0.06788556277751923
-0.03574239835143089 -0.007109588477760553 0.09102681279182434
-0.039349205791950226 -0.007827024906873703 0.060160890221595764
-0.035941168665885925 -0.007149127312004566 0.031791023910045624
-0.027012664824724197 -0.005373142659664154 0.01591472700238228
-0.004149474203586578 -0.0008253809646703303 0.0032165423035621643
-0.0027067509945482016 -0.0005384036339819431 -0.020860260352492332
-0.004489019978791475 -0.0008929208852350712 -0.06788556277751923
-0.03644263744354248 2.953724553833581e-08 0.09102681279182434
-0.04012010246515274 3.1938629518890593e-08 0.060160890221595764
-0.03664529323577881 2.9293421022202892e-08 0.031791023910045624
-0.0275418683886528 1.0196939292939078e-08 0.01591472700238228
-0.004230765160173178 1.3210856852907682e-09 0.0032165423035621643
-0.002759777707979083 -3.775345813750164e-09 -0.020860260352492332
-0.004576964303851128 1.4670560322116444e-09 -0.06788556277751923
-0.035742390900850296 0.0071096476167440414 0.09102681279182434
-0.039349187165498734 0.007827086374163628 0.060160890221595764
-0.03594115003943443 0.007149184122681618 0.031791023910045624
-0.02701265551149845 0.005373161286115646 0.01591472700238228
-0.004149474203586578 0.000825383176561445 0.0032165423035621643
-0.0027067509945482016 0.0005383958923630416 -0.020860260352492332
-0.004489019978791475 0.000892923679202795 -0.06788556277751923
-0.033668577671051025 0.013946040533483028 0.09102681279182434
-0.03706610947847366 0.015353349037468433 0.060160890221595764
-0.03385581076145172 0.014023599214851856 0.031791023910045624
-0.0254453606903553 0.010539823211729527 0.01591472700238228
-0.003908717073500156 0.0016190464375540614 0.0032165423035621643
-0.00254970439709723 0.0010561050148680806 -0.020860260352492332
-0.004228562582284212 0.001751531264744699 -0.06788556277751923
-0.03030090406537056 0.02024649828672409 0.09102681279182434
-0.03335859626531601 0.022289594635367393 0.060160890221595764
-0.030469408258795738 0.020359095185995102 0.031791023910045624
-0.022900216281414032 0.015301447361707687 0.01591472700238228
-0.0035177513491362333 0.0023504896089434624 0.0032165423035621643
-0.002294676611199975 0.0015332283219322562 -0.020860260352492332
-0.003805604763329029 0.0025428279768675566 -0.06788556277751923
-0.02576877921819687 0.02576889470219612 0.09102681279182434
-0.028369136154651642 0.028369257226586342 0.060160890221595764
-0.025912081822752953 0.025912199169397354 0.031791023910045624
-0.019475024193525314 0.019475042819976807 0.01591472700238228
-0.002991600427776575 0.002991605782881379 0.0032165423035621643
-0.0019514665473252535 0.001951430574990809 -0.020860260352492332
-0.003236399730667472 0.0032364055514335632 -0.06788556277751923
-0.02024637721478939 0.030301004648208618 0.09102681279182434
-0.02228946052491665 0.033358704298734665 0.060160890221595764
-0.020358968526124954 0.030469512566924095 0.031791023910045624
-0.015301421284675598 0.02290021814405918 0.01591472700238228
-0.0023504828568547964 0.003517755074426532 0.0032165423035621643
-0.001533262780867517 0.002294639591127634 -0.020860260352492332
-0.002542820293456316 0.0038056091871112585 -0.06788556277751923
-0.013945907354354858 0.03366866335272789 0.09102681279182434
-0.015353210270404816 0.037066198885440826 0.060160890221595764
-0.014023461379110813 0.03385589271783829 0.031791023910045624
-0.01053978968411684 0.025445351377129555 0.01591472700238228
-0.0016190381720662117 0.003908720798790455 0.0032165423035621643
-0.001056139008142054 0.00254966807551682 -0.020860260352492332
-0.0017515219515189528 0.0042285677045583725 -0.06788556277751923
-0.007109507452696562 0.03574245050549507 0.09102681279182434
-0.007826942019164562 0.03934925049543381 0.060160890221595764
-0.007149043492972851 0.035941220819950104 0.031791023910045624
-0.005373125895857811 0.02701263502240181 0.01591472700238228
-0.0008253740379586816 0.004149474203586578 0.0032165423035621643
-0.0005384291871450841 0.0027067118790000677 -0.020860260352492332
-0.0008929137256927788 0.004489021375775337 -0.06788556277751923
1.1835382673908157e-09 0.005099419504404068 0.0038500528316944838
0.000994848902337253 0.005001435987651348 0.0038500528316944838
0.0019514652667567134 0.00471124891191721 0.003850050736218691
0.002833087695762515 0.004240009933710098 0.003850050736218691
0.0036058356054127216 0.003605832811444998 0.003850050736218691
0.004240015521645546 0.002833084436133504 0.003850050736218691
0.004711252171546221 0.0019514611922204494 0.0038500528316944838
0.005001439712941647 0.0009948450606316328 0.003850050736218691
0.0050994218327105045 -2.58720445067695e-09 0.0038500528316944838
0.005001440644264221 -0.0009948501829057932 0.0038500528316944838
0.00471125403419137 -0.001951466896571219 0.0038500528316944838
0.004240015521645546 -0.002833089791238308 0.003850050736218691
0.0036058356054127216 -0.003605838166549802 0.003850050736218691
0.0028330879285931587 -0.00424001831561327 0.0038500528316944838
0.001951465499587357 -0.004711255431175232 0.0038500528316944838
0.0009948477381840348 -0.005001441575586796 0.0038500528316944838
-4.780660312064811e-10 -0.005099425092339516 0.0038500528316944838
-0.000994848320260644 -0.005001440178602934 0.003850050736218691
-0.0019514651503413916 -0.004711254499852657 0.0038500528316944838
-0.002833088394254446 -0.004240015987306833 0.003850050736218691
-0.003605837235227227 -0.0036058365367352962 0.003850050736218691
-0.004240014590322971 -0.002833086997270584 0.003850050736218691
-0.0047112517058849335 -0.0019514641026034951 0.0038500528316944838
-0.00500143738463521 -0.0009948464576154947 0.0038500528316944838
-0.005099419970065355 1.9517971683313817e-09 0.0038500528316944838
-0.00500143738463521 0.0009948500664904714 0.0038500528316944838
-0.004711249377578497 0.0019514663144946098 0.0038500528316944838
-0.004240009468048811 0.0028330888599157333 0.003850050736218691
-0.0036058302503079176 0.003605837933719158 0.003850050736218691
-0.002833079779520631 0.004240014124661684 0.0038500528316944838
-0.0019514566520228982 0.004711253102868795 0.0038500528316944838
-0.0009948390070348978 0.005001437850296497 0.0038500528316944838
-2.0741927286849204e-08 0.031196778640151024 0.11133772134780884
0.006086168345063925 0.03059733472764492 0.11133772134780884
0.011938468553125858 0.02882205881178379 0.11133772134780884
0.017331978306174278 0.02593916282057762 0.11133772134780884
0.022059433162212372 0.022059446200728416 0.11133772134780884
0.025939147919416428 0.01733199506998062 0.11133772134780884
0.02882203459739685 0.011938485316932201 0.11133772134780884
0.03059731237590313 0.0060861846432089806 0.11133772134780884
0.031196752563118935 -3.0215334678729278e-09 0.11133772134780884
0.030597319826483727 -0.0060861906968057156 0.11133772134780884
0.02882203459739685 -0.011938490904867649 0.11133772134780884
0.025939147919416428 -0.017332002520561218 0.11133772134780884
0.022059433162212372 -0.022059455513954163 0.11133772134780884
0.01733197644352913 -0.025939177721738815 0.11133772134780884
0.011938465759158134 -0.028822069987654686 0.11133772134780884
0.006086159497499466 -0.030597345903515816 0.11133772134780884
-3.090712397124662e-08 -0.03119678422808647 0.11133772134780884
-0.006086221430450678 -0.030597344040870667 0.11133772134780884
-0.011938524432480335 -0.02882205694913864 0.11133772134780884
-0.017332036048173904 -0.02593916468322277 0.11133772134780884
-0.0220594834536314 -0.022059442475438118 0.11133772134780884
-0.025939201936125755 -0.017331987619400024 0.11133772134780884
-0.028822092339396477 -0.011938470415771008 0.11133772134780884
-0.03059736266732216 -0.006086166016757488 0.11133772134780884
-0.031196797266602516 2.4746745097559142e-08 0.11133772134780884
-0.030597347766160965 0.006086215376853943 0.11133772134780884
-0.028822068125009537 0.011938514187932014 0.11133772134780884
-0.02593916840851307 0.017332026734948158 0.11133772134780884
-0.022059444338083267 0.022059472277760506 0.11133772134780884
-0.017331983894109726 0.02593919076025486 0.11133772134780884
-0.011938467621803284 0.028822071850299835 0.11133772134780884
-0.006086162757128477 0.030597340315580368 0.11133772134780884
1.4368266576525457e-09 0.004486273508518934 -0.06598623842000961
0.0008752299472689629 0.004400069359689951 -0.06598623842000961
0.0017168244812637568 0.004144774749875069 -0.06598623842000961
0.0024924413301050663 0.0037301972042769194 -0.06598623842000961
0.0031722758430987597 0.0031722732819616795 -0.06598623842000961
0.003730202792212367 0.002492438070476055 -0.06598623842000961
0.0041447775438427925 0.0017168200574815273 -0.06598623842000961
0.004400074481964111 0.0008752261637710035 -0.06598623842000961
0.004486275836825371 -2.5819457682985103e-09 -0.06598623842000961
0.004400074481964111 -0.000875231227837503 -0.06598623842000961
0.004144779872149229 -0.0017168257618322968 -0.06598623842000961
0.0037302023265510798 -0.002492443658411503 -0.06598623842000961
0.0031722758430987597 -0.0031722779385745525 -0.06598623842000961
0.0024924413301050663 -0.0037302044220268726 -0.06598623842000961
0.001716824364848435 -0.0041447789408266544 -0.06598623842000961
0.0008752289577387273 -0.004400074016302824 -0.06598623842000961
-2.498680602702752e-11 -0.004486277233809233 -0.06598623842000961
-0.0008752290159463882 -0.004400074016302824 -0.06598623842000961
-0.0017168232006952167 -0.0041447789408266544 -0.06598623842000961
-0.0024924417957663536 -0.0037302025593817234 -0.06598623842000961
-0.0031722765415906906 -0.003172276308760047 -0.06598623842000961
-0.003730200696736574 -0.00249244156293571 -0.06598623842000961
-0.004144776612520218 -0.0017168232006952167 -0.06598623842000961
-0.0044000702910125256 -0.0008752279100008309 -0.06598623842000961
-0.004486271645873785 1.4112930823984016e-09 -0.06598623842000961
-0.0044000702910125256 0.0008752304129302502 -0.06598623842000961
-0.004144774284213781 0.0017168248305097222 -0.06598623842000961
-0.0037301969714462757 0.0024924417957663536 -0.06598623842000961
-0.0031722707208245993 0.0031722765415906906 -0.06598623842000961
-0.0024924343451857567 0.003730201395228505 -0.06598623842000961
-0.001716815517283976 0.0041447789408266544 -0.06598623842000961
-0.0008752205176278949 0.0044000716879963875 -0.06598623842000961
5.1927429467468755e-08 0.034602779895067215 0.09098201245069504
0.0067507196217775345 0.033937886357307434 0.09098201245069504
0.013241960667073727 0.031968794763088226 0.09098201245069504
0.01922432705760002 0.02877115085721016 0.09098201245069504
0.02446790598332882 0.02446785382926464 0.09098201245069504
0.028771212324500084 0.019224267452955246 0.09098201245069504
0.031968843191862106 0.01324190478771925 0.09098201245069504
0.03393794596195221 0.00675066327676177 0.09098201245069504
0.03460283577442169 -2.6085364979167025e-09 0.09098201245069504
0.03393794596195221 -0.006750668399035931 0.09098201245069504
0.031968843191862106 -0.013241912238299847 0.09098201245069504
0.028771212324500084 -0.019224276766180992 0.09098201245069504
0.02446790598332882 -0.02446785941720009 0.09098201245069504
0.019224325194954872 -0.028771162033081055 0.09098201245069504
0.013241955079138279 -0.03196880593895912 0.09098201245069504
0.006750710774213076 -0.033937908709049225 0.09098201245069504
4.06523668061709e-08 -0.03460278362035751 0.09098201245069504
-0.006750628352165222 -0.03393790125846863 0.09098201245069504
-0.013241871260106564 -0.03196879103779793 0.09098201245069504
-0.01922423578798771 -0.028771154582500458 0.09098201245069504
-0.024467818439006805 -0.024467848241329193 0.09098201245069504
-0.028771113604307175 -0.0192242618650198 0.09098201245069504
-0.03196875378489494 -0.013241886161267757 0.09098201245069504
-0.03393784910440445 -0.006750642322003841 0.09098201245069504
-0.034602727741003036 2.8191440293312553e-08 0.09098201245069504
-0.033937837928533554 0.006750698201358318 0.09098201245069504
-0.03196873143315315 0.013241942040622234 0.09098201245069504
-0.02877107635140419 0.01922430470585823 0.09098201245069504
-0.024467771872878075 0.02446788363158703 0.09098201245069504
-0.019224179908633232 0.028771180659532547 0.09098201245069504
-0.013241809792816639 0.03196881338953972 0.09098201245069504
-0.006750562693923712 0.03393789753317833 0.09098201245069504
5.159645155572434e-08 0.038008395582437515 0.06098414957523346
0.007415120955556631 0.037278059870004654 0.06098414957523346
0.01454523392021656 0.03511517122387886 0.06098414957523346
0.021116383373737335 0.03160281479358673 0.06098414957523346
0.026876039803028107 0.026875987648963928 0.06098414957523346
0.031602878123521805 0.02111632376909256 0.06098414957523346
0.03511522710323334 0.014545177109539509 0.06098414957523346
0.03727812319993973 0.007415065076202154 0.06098414957523346
0.038008447736501694 -3.5270322218394767e-09 0.06098414957523346
0.037278126925230026 -0.007415070664137602 0.06098414957523346
0.03511522710323334 -0.014545182697474957 0.06098414957523346
0.031602878123521805 -0.021116334944963455 0.06098414957523346
0.026876039803028107 -0.026875998824834824 0.06098414957523346
0.021116379648447037 -0.03160283714532852 0.06098414957523346
0.014545228332281113 -0.035115186125040054 0.06098414957523346
0.007415111176669598 -0.037278082221746445 0.06098414957523346
3.92118089109772e-08 -0.038008399307727814 0.06098414957523346
-0.007415032479912043 -0.03727807477116585 0.06098414957523346
-0.01454514916986227 -0.03511517494916916 0.06098414957523346
-0.02111629582941532 -0.03160282224416733 0.06098414957523346
-0.026875954121351242 -0.026875978335738182 0.06098414957523346
-0.03160278499126434 -0.021116316318511963 0.06098414957523346
-0.035115137696266174 -0.014545160345733166 0.06098414957523346
-0.037278030067682266 -0.007415043655782938 0.06098414957523346
-0.03800833970308304 3.030430306694143e-08 0.06098414957523346
-0.037278011441230774 0.0074151018634438515 0.06098414957523346
-0.03511510789394379 0.014545212499797344 0.06098414957523346
-0.03160274773836136 0.021116366609930992 0.06098414957523346
-0.026875903829932213 0.026876019313931465 0.06098414957523346
-0.021116232499480247 0.03160284832119942 0.06098414957523346
-0.0145450783893466 0.035115186125040054 0.06098414957523346
-0.0074149612337350845 0.037278078496456146 0.06098414957523346
5.4355627554514285e-08 0.03435284644365311 0.031730614602565765
0.00670196395367384 0.03369275853037834 0.031730614602565765
0.01314632035791874 0.03173789754509926 0.031730614602565765
0.01908547803759575 0.02856334112584591 0.031730614602565765
0.024291183799505234 0.024291133508086205 0.031730614602565765
0.028563406318426132 0.019085414707660675 0.031730614602565765
0.031737953424453735 0.013146261684596539 0.031730614602565765
0.03369281440973282 0.006701904349029064 0.031730614602565765
0.03435291349887848 -2.9994686734369225e-09 0.031730614602565765
0.03369281813502312 -0.0067019094713032246 0.031730614602565765
0.031737953424453735 -0.013146266341209412 0.031730614602565765
0.028563406318426132 -0.01908542588353157 0.031730614602565765
0.024291183799505234 -0.024291139096021652 0.031730614602565765
0.0190854761749506 -0.028563357889652252 0.031730614602565765
0.013146313838660717 -0.031737908720970154 0.031730614602565765
0.006701954640448093 -0.03369278460741043 0.031730614602565765
4.316198598530718e-08 -0.034352857619524 0.031730614602565765
-0.006701866630464792 -0.033692773431539536 0.031730614602565765
-0.013146227225661278 -0.03173789381980896 0.031730614602565765
-0.01908538118004799 -0.028563346713781357 0.031730614602565765
-0.02429109439253807 -0.024291127920150757 0.031730614602565765
-0.028563309460878372 -0.019085407257080078 0.031730614602565765
-0.031737856566905975 -0.01314624771475792 0.031730614602565765
-0.03369271382689476 -0.00670188432559371 0.031730614602565765
-0.034352801740169525 2.7578062500310807e-08 0.031730614602565765
-0.033692698925733566 0.00670193787664175 0.031730614602565765
-0.031737834215164185 0.013146297074854374 0.031730614602565765
-0.02856327034533024 0.01908545196056366 0.031730614602565765
-0.02429104782640934 0.024291157722473145 0.031730614602565765
-0.01908532902598381 0.028563372790813446 0.031730614602565765
-0.013146163895726204 0.031737908720970154 0.031730614602565765
-0.006701802369207144 0.03369276598095894 0.031730614602565765
-1.6933684676700977e-08 0.017860613763332367 0.013821826316416264
0.003484418150037527 0.017517423257231712 0.013821826316416264
0.006834949366748333 0.016501054167747498 0.013821826316416264
0.009922816418111324 0.014850555919110775 0.013821826316416264
0.012629353441298008 0.01262935996055603 0.013821826316416264
0.014850551262497902 0.009922819212079048 0.013821826316416264
0.01650104857981205 0.006834952626377344 0.013821826316416264
0.017517417669296265 0.0034844232723116875 0.013821826316416264
0.017860611900687218 -1.2232047374993726e-08 0.013821826316416264
0.017517419531941414 -0.0034844467882066965 0.013821826316416264
0.01650104857981205 -0.006834976840764284 0.013821826316416264
0.014850551262497902 -0.009922842495143414 0.013821826316416264
0.012629353441298008 -0.012629383243620396 0.013821826316416264
0.00992281548678875 -0.014850583858788013 0.013821826316416264
0.006834946107119322 -0.016501085832715034 0.013821826316416264
0.0034844132605940104 -0.0175174530595541 0.013821826316416264
-2.275341337565351e-08 -0.017860639840364456 0.013821826316416264
-0.003484458662569523 -0.017517447471618652 0.013821826316416264
-0.006834990344941616 -0.01650107651948929 0.013821826316416264
-0.009922854602336884 -0.014850576408207417 0.013821826316416264
-0.012629394419491291 -0.012629377655684948 0.013821826316416264
-0.01485059130936861 -0.009922834113240242 0.013821826316416264
-0.016501087695360184 -0.006834964267909527 0.013821826316416264
-0.01751745492219925 -0.0034844339825212955 0.013821826316416264
-0.017860643565654755 3.6657266111461695e-09 0.013821826316416264
-0.0175174530595541 0.0034844400361180305 0.013821826316416264
-0.01650107465684414 0.0068349698558449745 0.013821826316416264
-0.014850571751594543 0.00992283783853054 0.013821826316416264
-0.01262937393039465 0.0126293720677495 0.013821826316416264
-0.009922826662659645 0.01485056895762682 0.013821826316416264
-0.006834959611296654 0.016501065343618393 0.013821826316416264
-0.0034844253677874804 0.01751742884516716 0.013821826316416264
1.5417754850588494e-09 0.011008408851921558 0.00888955220580101
0.0021476370748132467 0.010796882212162018 0.00888955220580101
0.004212738014757633 0.010170442052185535 0.00888955220580101
0.006115949247032404 0.009153151884675026 0.00888955220580101
0.007784126326441765 0.007784116547554731 0.00888955220580101
0.00915316678583622 0.0061159380711615086 0.00888955220580101
0.010170451365411282 0.004212728701531887 0.00888955220580101
0.010796892456710339 0.0021476263646036386 0.00888955220580101
0.011008418165147305 -8.647595528543661e-09 0.00888955220580101
0.010796892456710339 -0.0021476431284099817 0.00888955220580101
0.010170451365411282 -0.004212746396660805 0.00888955220580101
0.00915316678583622 -0.006115956697613001 0.00888955220580101
0.007784126326441765 -0.007784134708344936 0.00888955220580101
0.006115948781371117 -0.009153172373771667 0.00888955220580101
0.004212737549096346 -0.010170460678637028 0.00888955220580101
0.0021476340480148792 -0.01079690083861351 0.00888955220580101
-2.0451880189398253e-09 -0.011008422821760178 0.00888955220580101
-0.0021476384717971087 -0.010796898975968361 0.00888955220580101
-0.004212742205709219 -0.01017045509070158 0.00888955220580101
-0.006115950644016266 -0.009153168648481369 0.00888955220580101
-0.007784129120409489 -0.007784129586070776 0.00888955220580101
-0.009153163060545921 -0.006115951109677553 0.00888955220580101
-0.010170451365411282 -0.004212738946080208 0.00888955220580101
-0.010796891525387764 -0.002147635444998741 0.00888955220580101
-0.011008410714566708 1.1510080666354838e-09 0.00888955220580101
-0.010796885006129742 0.0021476373076438904 0.00888955220580101
-0.010170442052185535 0.004212739411741495 0.00888955220580101
-0.0091531528159976 0.006115949712693691 0.00888955220580101
-0.0077841151505708694 0.00778412539511919 0.00888955220580101
-0.006115932483226061 0.009153162129223347 0.00888955220580101
-0.004212722647935152 0.010170446708798409 0.00888955220580101
-0.002147617284208536 0.010796885006129742 0.00888955220580101
2.1883044265536e-09 0.0055396477691829205 0.00888955220580101
0.0010807352373376489 0.005433204118162394 0.00888955220580101
0.0021199355833232403 0.00511796772480011 0.00888955220580101
0.003077669767662883 0.00460604764521122 0.00888955220580101
0.003917129244655371 0.003917120397090912 0.00888955220580101
0.0046060578897595406 0.0030776597559452057 0.00888955220580101
0.005117976106703281 0.002119926270097494 0.00888955220580101
0.005433213897049427 0.001080725691281259 0.00888955220580101
0.005539658013731241 -7.222515918670069e-09 0.00888955220580101
0.005433213897049427 -0.001080739893950522 0.00888955220580101
0.005117976106703281 -0.0021199414040893316 0.00888955220580101
0.0046060578897595406 -0.0030776746571063995 0.00888955220580101
0.003917129244655371 -0.003917135298252106 0.00888955220580101
0.0030776693020015955 -0.004606061615049839 0.00888955220580101
0.0021199355833232403 -0.005117981694638729 0.00888955220580101
0.0010807339567691088 -0.005433220881968737 0.00888955220580101
3.8329486806709667e-10 -0.005539662204682827 0.00888955220580101
-0.001080733141861856 -0.005433219484984875 0.00888955220580101
-0.0021199348848313093 -0.0051179793663322926 0.00888955220580101
-0.0030776674393564463 -0.004606060218065977 0.00888955220580101
-0.003917127847671509 -0.0039171320386230946 0.00888955220580101
-0.004606054164469242 -0.0030776718631386757 0.00888955220580101
-0.00511797284707427 -0.002119937678799033 0.00888955220580101
-0.005433211103081703 -0.001080735819414258 0.00888955220580101
-0.005539651960134506 -2.291655087915956e-09 0.00888955220580101
-0.005433207843452692 0.0010807313956320286 0.00888955220580101
-0.005117968190461397 0.002119931625202298 0.00888955220580101
-0.004606048576533794 0.0030776658095419407 0.00888955220580101
-0.003917120397090912 0.003917125519365072 0.00888955220580101
-0.0030776585917919874 0.0046060518361628056 0.00888955220580101
-0.002119925105944276 0.005117969587445259 0.00888955220580101
-0.001080722431652248 0.0054332055151462555 0.00888955220580101
0.004271422978490591 0.021473897621035576 -0.07085447758436203
0.008378701284527779 0.02022797055542469 -0.07085447758436203
0.012163989245891571 0.018204690888524055 -0.07085447758436203
0.015481822192668915 0.015481816604733467 -0.07085447758436203
0.018204696476459503 0.012163983657956123 -0.07085447758436203
0.020227976143360138 0.008378695696592331 -0.07085447758436203
0.021473903208971024 0.004271420184522867 -0.07085447758436203
0.021894602105021477 -5.3221484996868185e-09 -0.07085447758436203
0.021473906934261322 -0.004271429497748613 -0.07085447758436203
0.020227978006005287 -0.008378706872463226 -0.07085447758436203
0.018204696476459503 -0.012163995765149593 -0.07085447758436203
0.015481822192668915 -0.015481828711926937 -0.07085447758436203
0.012163988314568996 -0.0182047076523304 -0.07085447758436203
0.00837869755923748 -0.020227985456585884 -0.07085447758436203
0.004271417856216431 -0.02147391252219677 -0.07085447758436203
-9.229712993885641e-09 -0.021894613280892372 -0.07085447758436203
-0.004271436482667923 -0.02147391065955162 -0.07085447758436203
-0.008378713391721249 -0.020227979868650436 -0.07085447758436203
-0.012164002284407616 -0.0182047002017498 -0.07085447758436203
-0.015481832437217236 -0.015481819398701191 -0.07085447758436203
-0.018204709514975548 -0.012163986451923847 -0.07085447758436203
-0.020227987319231033 -0.008378693833947182 -0.07085447758436203
-0.02147391065955162 -0.004271413665264845 -0.07085447758436203
-0.021894605830311775 1.4166267270354638e-08 -0.07085447758436203
-0.021473903208971024 0.004271441604942083 -0.07085447758436203
-0.020227966830134392 0.008378718979656696 -0.07085447758436203
-0.018204687163233757 0.012164006941020489 -0.07085447758436203
-0.015481802634894848 0.015481837093830109 -0.07085447758436203
-0.01216396689414978 0.018204709514975548 -0.07085447758436203
-0.00837867520749569 0.020227983593940735 -0.07085447758436203
-0.004271395038813353 0.021473905071616173 -0.07085447758436203
-2.095543516489329e-09 0.021894600242376328 -0.07085447758436203
-0.006666550412774086 0.033515240997076035 -0.07396932691335678
-0.013076956383883953 0.0315706767141819 -0.07396932691335678
-0.018984824419021606 0.028412863612174988 -0.07396932691335678
-0.02416311576962471 0.02416316233575344 -0.07396932691335678
-0.02841283567249775 0.018984882161021233 -0.07396932691335678
-0.031570661813020706 0.013077021576464176 -0.07396932691335678
-0.033515240997076035 0.006666617933660746 -0.07396932691335678
-0.034171849489212036 1.7381518446768496e-08 -0.07396932691335678
-0.03351524844765663 -0.00666658254340291 -0.07396932691335678
-0.0315706841647625 -0.013076990842819214 -0.07396932691335678
-0.028412867337465286 -0.018984856083989143 -0.07396932691335678
-0.02416316419839859 -0.024163145571947098 -0.07396932691335678
-0.018984880298376083 -0.02841285802423954 -0.07396932691335678
-0.013077017851173878 -0.0315706804394722 -0.07396932691335678
-0.006666615139693022 -0.03351525962352753 -0.07396932691335678
-1.5402155995047906e-08 -0.03417187184095383 -0.07396932691335678
0.0066665844060480595 -0.033515263348817825 -0.07396932691335678
0.013076990842819214 -0.03157069534063339 -0.07396932691335678
0.018984856083989143 -0.028412871062755585 -0.07396932691335678
0.02416313998401165 -0.02416316233575344 -0.07396932691335678
0.028412850573658943 -0.018984874710440636 -0.07396932691335678
0.031570665538311005 -0.013077009469270706 -0.07396932691335678
0.03351524472236633 -0.0066666086204349995 -0.07396932691335678
0.03417183831334114 -1.3034889612129064e-08 -0.07396932691335678
0.033515240997076035 0.00666658254340291 -0.07396932691335678
0.031570665538311005 0.01307698618620634 -0.07396932691335678
0.028412850573658943 0.0189848430454731 -0.07396932691335678
0.02416313998401165 0.024163132533431053 -0.07396932691335678
0.018984859809279442 0.02841283567249775 -0.07396932691335678
0.01307699829339981 0.03157065808773041 -0.07396932691335678
0.006666593253612518 0.03351523354649544 -0.07396932691335678
-4.2675498690414315e-09 0.03417183458805084 -0.07396932691335678
-1.1311922953893827e-08 0.03400547429919243 -0.07286572456359863
0.006634130608290434 0.0333520732820034 -0.07286572456359863
0.013013328425586224 0.031416963785886765 -0.07286572456359863
0.018892427906394005 0.02827451564371586 -0.07286572456359863
0.024045497179031372 0.024045497179031372 -0.07286572456359863
0.028274519369006157 0.01889241859316826 -0.07286572456359863
0.031416963785886765 0.01301332376897335 -0.07286572456359863
0.033352069556713104 0.006634127348661423 -0.07286572456359863
0.03400547057390213 -1.2899532997323604e-08 -0.07286572456359863
0.0333520732820034 -0.006634153891354799 -0.07286572456359863
0.031416963785886765 -0.013013347052037716 -0.07286572456359863
0.028274519369006157 -0.018892452120780945 -0.07286572456359863
0.024045497179031372 -0.02404552698135376 -0.07286572456359863
0.018892424181103706 -0.028274549171328545 -0.07286572456359863
0.013013320975005627 -0.03141699731349945 -0.07286572456359863
0.006634121760725975 -0.03335210308432579 -0.07286572456359863
-2.2392292464701313e-08 -0.03400551155209541 -0.07286572456359863
-0.006634166929870844 -0.03335209935903549 -0.07286572456359863
-0.01301336195319891 -0.031416986137628555 -0.07286572456359863
-0.01889246329665184 -0.0282745361328125 -0.07286572456359863
-0.024045536294579506 -0.024045508354902267 -0.07286572456359863
-0.028274552896618843 -0.018892435356974602 -0.07286572456359863
-0.03141699358820915 -0.013013329356908798 -0.07286572456359863
-0.033352091908454895 -0.006634126883000135 -0.07286572456359863
-0.03400549665093422 1.736880150815523e-08 -0.07286572456359863
-0.0333520844578743 0.006634162738919258 -0.07286572456359863
-0.03141697123646736 0.013013359159231186 -0.07286572456359863
-0.028274521231651306 0.018892459571361542 -0.07286572456359863
-0.024045489728450775 0.02404552698135376 -0.07286572456359863
-0.018892407417297363 0.0282745398581028 -0.07286572456359863
-0.013013300485908985 0.03141698241233826 -0.07286572456359863
-0.006634102202951908 0.033352080732584 -0.07286572456359863
-0.005080910865217447 0.025543710216879845 -0.07475046813488007
-0.00996661651879549 0.0240616574883461 -0.07475046813488007
-0.014469314366579056 0.021654920652508736 -0.07475046813488007
-0.01841595582664013 0.01841600239276886 -0.07475046813488007
-0.021654890850186348 0.014469364657998085 -0.07475046813488007
-0.02406163327395916 0.009966674260795116 -0.07475046813488007
-0.0255437009036541 0.005080971866846085 -0.07475046813488007
-0.02604413777589798 7.52918438706729e-09 -0.07475046813488007
-0.025543704628944397 -0.0050809565000236034 -0.07475046813488007
-0.02406165562570095 -0.009966663084924221 -0.07475046813488007
-0.021654915064573288 -0.014469357207417488 -0.07475046813488007
-0.018415993079543114 -0.018415996804833412 -0.07475046813488007
-0.014469355344772339 -0.021654929965734482 -0.07475046813488007
-0.009966664016246796 -0.024061668664216995 -0.07475046813488007
-0.005080960225313902 -0.025543736293911934 -0.07475046813488007
3.1944311640330625e-09 -0.026044173166155815 -0.07475046813488007
0.005080966744571924 -0.025543740019202232 -0.07475046813488007
0.009966673329472542 -0.02406168356537819 -0.07475046813488007
0.014469368383288383 -0.02165493741631508 -0.07475046813488007
0.01841600611805916 -0.018416013568639755 -0.07475046813488007
0.02165493369102478 -0.014469370245933533 -0.07475046813488007
0.024061666801571846 -0.00996667891740799 -0.07475046813488007
0.025543734431266785 -0.005080976523458958 -0.07475046813488007
0.02604415826499462 -1.5652755536166296e-08 -0.07475046813488007
0.02554372325539589 0.005080945789813995 -0.07475046813488007
0.024061663076281548 0.009966649115085602 -0.07475046813488007
0.02165493369102478 0.014469335786998272 -0.07475046813488007
0.01841600611805916 0.01841597817838192 -0.07475046813488007
0.014469368383288383 0.021654900163412094 -0.07475046813488007
0.009966677986085415 0.024061638861894608 -0.07475046813488007
0.005080972798168659 0.02554369904100895 -0.07475046813488007
1.1680694633753319e-08 0.026044130325317383 -0.07475046813488007
-4.184244506433288e-09 0.03403418883681297 -0.07533004879951477
0.006639738101512194 0.033380232751369476 -0.07533004879951477
0.01302432268857956 0.03144349530339241 -0.07533004879951477
0.018908388912677765 0.0282983910292387 -0.07533004879951477
0.024065813049674034 0.024065805599093437 -0.07533004879951477
0.028298402205109596 0.01890837773680687 -0.07533004879951477
0.03144349530339241 0.013024317100644112 -0.07533004879951477
0.033380232751369476 0.00663973530754447 -0.07533004879951477
0.03403419256210327 -7.571413718210351e-09 -0.07533004879951477
0.03338024392724037 -0.006639749743044376 -0.07533004879951477
0.03144349902868271 -0.01302433107048273 -0.07533004879951477
0.028298402205109596 -0.018908396363258362 -0.07533004879951477
0.024065813049674034 -0.02406582608819008 -0.07533004879951477
0.018908387050032616 -0.02829841524362564 -0.07533004879951477
0.013024317100644112 -0.0314435251057148 -0.07533004879951477
0.0066397301852703094 -0.033380258828401566 -0.07533004879951477
-1.5273997178155696e-08 -0.03403421863913536 -0.07533004879951477
-0.0066397604532539845 -0.03338025510311127 -0.07533004879951477
-0.013024344108998775 -0.031443506479263306 -0.07533004879951477
-0.018908409401774406 -0.028298404067754745 -0.07533004879951477
-0.024065833538770676 -0.024065805599093437 -0.07533004879951477
-0.02829841710627079 -0.01890837959945202 -0.07533004879951477
-0.0314435213804245 -0.01302431058138609 -0.07533004879951477
-0.03338024765253067 -0.006639723666012287 -0.07533004879951477
-0.03403420373797417 2.2722479897652192e-08 -0.07533004879951477
-0.03338024020195007 0.006639769300818443 -0.07533004879951477
-0.03144349157810211 0.013024350628256798 -0.07533004879951477
-0.028298387303948402 0.018908416852355003 -0.07533004879951477
-0.024065785109996796 0.024065837264060974 -0.07533004879951477
-0.01890835538506508 0.02829841896891594 -0.07533004879951477
-0.013024281710386276 0.0314435176551342 -0.07533004879951477
-0.006639696657657623 0.03338024765253067 -0.07533004879951477
5.10691862132262e-08 0.04066408798098564 0.041161537170410156
0.007933221757411957 0.03988273814320564 0.041161537170410156
0.015561527572572231 0.037568721920251846 0.041161537170410156
0.022591812536120415 0.03381095081567764 0.041161537170410156
0.02875390648841858 0.02875385247170925 0.041161537170410156
0.03381101414561272 0.02259175293147564 0.041161537170410156
0.037568774074316025 0.01556146889925003 0.041161537170410156
0.03988279402256012 0.007933164946734905 0.041161537170410156
0.04066414758563042 -3.900728628991601e-09 0.041161537170410156
0.03988279774785042 -0.007933173328638077 0.041161537170410156
0.037568774074316025 -0.015561476349830627 0.041161537170410156
0.03381101414561272 -0.022591767832636833 0.041161537170410156
0.02875390648841858 -0.028753865510225296 0.041161537170410156
0.022591808810830116 -0.033810969442129135 0.041161537170410156
0.015561520121991634 -0.03756874054670334 0.041161537170410156
0.007933213375508785 -0.039882756769657135 0.041161537170410156
3.781918422873787e-08 -0.04066411405801773 0.041161537170410156
-0.007933136075735092 -0.03988275304436684 0.041161537170410156
-0.015561438165605068 -0.037568725645542145 0.041161537170410156
-0.0225917287170887 -0.03381096199154854 0.041161537170410156
-0.028753822669386864 -0.028753845021128654 0.041161537170410156
-0.033810921013355255 -0.022591743618249893 0.041161537170410156
-0.03756868466734886 -0.015561451204121113 0.041161537170410156
-0.039882708340883255 -0.007933144457638264 0.041161537170410156
-0.04066404327750206 3.2294426688395106e-08 0.041161537170410156
-0.039882682263851166 0.007933206856250763 0.041161537170410156
-0.03756865859031677 0.015561510808765888 0.041161537170410156
-0.03381086885929108 0.02259179577231407 0.041161537170410156
-0.028753764927387238 0.028753889724612236 0.041161537170410156
-0.022591663524508476 0.03381098061800003 0.041161537170410156
-0.015561369247734547 0.03756873682141304 0.041161537170410156
-0.007933057844638824 0.03988274559378624 0.041161537170410156
-2.114389374696657e-08 0.032921984791755676 0.10983972251415253
0.006422739010304213 0.03228939697146416 0.10983972251415253
0.012598677538335323 0.03041594848036766 0.10983972251415253
0.018290456384420395 0.027373626828193665 0.10983972251415253
0.02327934093773365 0.023279359564185143 0.10983972251415253
0.02737361378967762 0.01829047128558159 0.10983972251415253
0.03041592612862587 0.012598694302141666 0.10983972251415253
0.03228938207030296 0.006422756239771843 0.10983972251415253
0.032921962440013885 -3.392937708568411e-09 0.10983972251415253
0.03228938207030296 -0.006422763224691153 0.10983972251415253
0.03041592799127102 -0.012598700821399689 0.10983972251415253
0.02737361378967762 -0.018290482461452484 0.10983972251415253
0.02327934093773365 -0.02327936515212059 0.10983972251415253
0.018290454521775246 -0.02737363427877426 0.10983972251415253
0.012598673813045025 -0.030415959656238556 0.10983972251415253
0.006422732025384903 -0.03228941559791565 0.10983972251415253
-3.187128427839525e-08 -0.03292199224233627 0.10983972251415253
-0.006422795355319977 -0.03228941187262535 0.10983972251415253
-0.01259873528033495 -0.03041595220565796 0.10983972251415253
-0.01829051412642002 -0.027373623102903366 0.10983972251415253
-0.023279394954442978 -0.023279352113604546 0.10983972251415253
-0.02737366408109665 -0.018290461972355843 0.10983972251415253
-0.030415978282690048 -0.012598678469657898 0.10983972251415253
-0.032289423048496246 -0.006422738078981638 0.10983972251415253
-0.032922010868787766 2.5910974699172584e-08 0.10983972251415253
-0.03228941187262535 0.0064227888360619545 0.10983972251415253
-0.030415955930948257 0.012598726898431778 0.10983972251415253
-0.027373626828193665 0.018290508538484573 0.10983972251415253
-0.023279353976249695 0.023279383778572083 0.10983972251415253
-0.018290458247065544 0.027373647317290306 0.10983972251415253
-0.0125986747443676 0.030415967106819153 0.10983972251415253
-0.006422731559723616 0.03228940814733505 0.10983972251415253
0.031022073701024055 -0.006170680280774832 0.11133772134780884
0.029222149401903152 -0.012104224413633347 0.11133772134780884
-0.012104257941246033 -0.029222171753644943 0.11133772134780884
-0.017572641372680664 -0.026299256831407547 0.11133772134780884
-0.026299262419342995 0.017572633922100067 0.11133772134780884
-0.02236567623913288 0.02236570604145527 0.11133772134780884
0.0262992475181818 0.01757260225713253 0.11133772134780884
0.029222149401903152 0.012104217894375324 0.11133772134780884
0.012104195542633533 -0.02922218292951584 0.11133772134780884
0.0061706495471298695 -0.03102210722863674 0.11133772134780884
-0.031022122129797935 -0.006170656997710466 0.11133772134780884
-0.031629882752895355 2.5041110518486676e-08 0.11133772134780884
0.006170657929033041 0.031022096052765846 0.11133772134780884
0.012104200199246407 0.02922217547893524 0.11133772134780884
0.0262992475181818 -0.017572609707713127 0.11133772134780884
-0.022365717217326164 -0.02236567623913288 0.11133772134780884
-0.017572589218616486 0.026299282908439636 0.11133772134780884
0.031022069975733757 0.006170674227178097 0.11133772134780884
-3.1095925834279114e-08 -0.031629856675863266 0.11133772134780884
-0.03102210909128189 0.006170705892145634 0.11133772134780884
0.017572585493326187 0.026299258694052696 0.11133772134780884
0.022365665063261986 -0.022365689277648926 0.11133772134780884
-0.02629929408431053 -0.017572592943906784 0.11133772134780884
-0.012104198336601257 0.029222186654806137 0.11133772134780884
0.03162983059883118 -3.112667901206123e-09 0.11133772134780884
-0.006170711014419794 -0.031022099778056145 0.11133772134780884
-0.02922218292951584 0.012104249559342861 0.11133772134780884
0.022365665063261986 0.02236567996442318 0.11133772134780884
0.017572583630681038 -0.02629926986992359 0.11133772134780884
-0.02922220714390278 -0.012104202061891556 0.11133772134780884
-0.006170650944113731 0.031022101640701294 0.11133772134780884
-2.0789633126128138e-08 0.03162985295057297 0.11133772134780884
-0.027113668620586395 -0.027113692834973335 0.04114443436264992
-0.03188230097293854 -0.02130308374762535 0.04114443436264992
0.0376078337430954 0.007480648811906576 0.04114443436264992
0.038344621658325195 -3.6405121139893026e-09 0.04114443436264992
-0.03542572259902954 -0.014673806726932526 0.04114443436264992
0.0376078337430954 -0.007480654865503311 0.04114443436264992
-0.037607740610837936 -0.007480627857148647 0.04114443436264992
0.035425808280706406 -0.014673830941319466 0.04114443436264992
-0.03834452107548714 3.049004604349648e-08 0.04114443436264992
0.031882394105196 -0.021303104236721992 0.04114443436264992
-0.037607721984386444 0.007480686064809561 0.04114443436264992
0.027113743126392365 -0.02711370773613453 0.04114443436264992
-0.03542569279670715 0.014673860743641853 0.04114443436264992
0.021303148940205574 -0.03188234940171242 0.04114443436264992
-0.031882259994745255 0.02130313776433468 0.04114443436264992
0.014673874713480473 -0.03542577475309372 0.04114443436264992
5.140420711313709e-08 0.03834456577897072 0.04114443436264992
0.007480706553906202 0.03760777413845062 0.04114443436264992
