0.02073718048632145 0.002625233493745327 3.592070243030321e-06
0.020737187936902046 0.0025747905019670725 -0.0005085656302981079
0.020737187936902046 0.0024253996089100838 -0.0010010413825511932
0.020737195387482643 0.0021828014869242907 -0.0014549095649272203
0.020737195387482643 0.0018563203047960997 -0.0018527290085330606
0.020737195387482643 0.0014585015596821904 -0.002179209841415286
0.02073720283806324 0.0010046332608908415 -0.0024218077305704355
0.02073720283806324 0.0005121576832607388 -0.0025711986236274242
0.02073720283806324 2.466014059621102e-10 -0.0026216418482363224
0.02073720283806324 -0.0005121575086377561 -0.0025711986236274242
0.02073720283806324 -0.0010046326788142323 -0.0024218077305704355
0.020737195387482643 -0.0014585013268515468 -0.002179209841415286
0.020737195387482643 -0.0018563198391348124 -0.0018527290085330606
0.020737195387482643 -0.0021828017197549343 -0.0014549095649272203
0.020737187936902046 -0.00242539937607944 -0.0010010413825511932
0.020737187936902046 -0.0025747898034751415 -0.0005085647571831942
0.02073718048632145 -0.002625232795253396 3.592942448449321e-06
0.020737173035740852 -0.0025747898034751415 0.0005157506675459445
0.020737173035740852 -0.002425398677587509 0.001008225604891777
0.020737165585160255 -0.0021828007884323597 0.0014620937872678041
0.020737165585160255 -0.0018563190242275596 0.0018599129980430007
0.020737165585160255 -0.0014584995806217194 0.00218639406375587
0.02073715627193451 -0.001004630932584405 0.0024289926514029503
0.02073715627193451 -0.0005121552967466414 0.0025783819146454334
0.02073715627193451 2.8631799153799875e-09 0.002628824207931757
0.02073715627193451 0.0005121604772284627 0.0025783819146454334
0.02073715627193451 0.0010046361712738872 0.0024289891589432955
0.020737165585160255 0.0014585043536499143 0.0021863922011107206
0.020737165585160255 0.001856322749517858 0.0018599095055833459
0.020737165585160255 0.002182803815230727 0.0014620901783928275
0.020737173035740852 0.0024254010058939457 0.0010082221124321222
0.020737173035740852 0.00257479096762836 0.0005157454288564622
-0.01590515486896038 0.006440388970077038 3.299963509562076e-06
0.015563484281301498 0.006440388970077038 3.5594043765740935e-06
0.015563508495688438 0.006316639482975006 -0.0012528987135738134
-0.01590513251721859 0.006316639482975006 -0.0012531580869108438
0.015563515946269035 0.005950144492089748 -0.0024610713589936495
-0.015905123203992844 0.005950144492089748 -0.00246133073233068
0.015563523396849632 0.005354987923055887 -0.0035745305940508842
-0.015905115753412247 0.005354987923055887 -0.003574789734557271
0.01556353084743023 0.0045540425926446915 -0.00455048494040966
-0.01590510830283165 0.0045540425926446915 -0.004550744313746691
0.015563538298010826 0.0035780880134552717 -0.005351430736482143
-0.015905100852251053 0.0035780880134552717 -0.005351690109819174
0.015563538298010826 0.0024646290112286806 -0.00594658637419343
-0.015905100852251053 0.0024646290112286806 -0.005946846213191748
0.015563545748591423 0.0012564563658088446 -0.0063130808994174
-0.015905093401670456 0.0012564563658088446 -0.006313340738415718
0.015563545748591423 -1.3207520632718683e-09 -0.006436831317842007
-0.015905093401670456 -1.3207520632718683e-09 -0.006437090691179037
0.015563545748591423 -0.0012564592761918902 -0.006313081830739975
-0.015905093401670456 -0.0012564592761918902 -0.006313341669738293
0.015563538298010826 -0.0024646325036883354 -0.00594658637419343
-0.015905100852251053 -0.0024646325036883354 -0.005946846213191748
0.015563538298010826 -0.0035780915059149265 -0.005351430736482143
-0.015905100852251053 -0.0035780915059149265 -0.005351690109819174
0.01556353084743023 -0.00455404631793499 -0.00455048494040966
-0.01590510830283165 -0.00455404631793499 -0.004550744313746691
0.015563523396849632 -0.005354992114007473 -0.0035745305940508842
-0.015905115753412247 -0.005354992114007473 -0.003574789734557271
0.015563515946269035 -0.005950148683041334 -0.002461070427671075
-0.015905123203992844 -0.005950148683041334 -0.0024613298010081053
0.015563508495688438 -0.006316644139587879 -0.0012528967345133424
-0.01590513251721859 -0.006316644139587879 -0.0012531561078503728
0.015563499182462692 -0.0064403945580124855 3.561406856533722e-06
-0.015905139967799187 -0.0064403945580124855 3.302967570562032e-06
0.015563491731882095 -0.0063166432082653046 0.0012600204208865762
-0.015905147418379784 -0.0063166432082653046 0.0012597610475495458
0.015563484281301498 -0.005950146820396185 0.002468193881213665
-0.01590515486896038 -0.005950146820396185 0.0024679347407072783
0.015563476830720901 -0.0053549897857010365 0.0035816531162708998
-0.015905162319540977 -0.0053549897857010365 0.0035813937429338694
0.015563469380140305 -0.004554043989628553 0.004557606298476458
-0.015905169770121574 -0.004554043989628553 0.004557346925139427
0.015563461929559708 -0.0035780875477939844 0.005358552094548941
-0.01590517722070217 -0.0035780875477939844 0.00535829272121191
0.015563461929559708 -0.0024646283127367496 0.005953709129244089
-0.01590517722070217 -0.0024646283127367496 0.005953449755907059
0.01556345447897911 -0.0012564548524096608 0.006320202723145485
-0.015905186533927917 -0.0012564548524096608 0.006319942884147167
0.01556345447897911 4.186603508316011e-09 0.006443951744586229
-0.015905186533927917 4.186603508316011e-09 0.006443692371249199
0.01556345447897911 0.0012564628850668669 0.006320200394839048
-0.015905186533927917 0.0012564628850668669 0.006319941021502018
0.015563461929559708 0.0024646359961479902 0.005953703075647354
-0.01590517722070217 0.0024646359961479902 0.005953443702310324
0.015563461929559708 0.0035780949983745813 0.005358546040952206
-0.01590517722070217 0.0035780949983745813 0.005358286667615175
0.015563469380140305 0.004554048180580139 0.004557598382234573
-0.015905169770121574 0.004554048180580139 0.004557339008897543
0.015563476830720901 0.005354993045330048 0.0035816431045532227
-0.015905162319540977 0.005354993045330048 0.0035813837312161922
0.015563484281301498 0.0059501477517187595 0.0024681820068508387
-0.01590515486896038 0.0059501477517187595 0.0024679226335138083
0.015563491731882095 0.006316641345620155 0.001260008430108428
-0.015905147418379784 0.006316641345620155 0.0012597490567713976
0.018794182687997818 0.004709453321993351 3.5774796742771287e-06
0.018794190138578415 0.0046189636923372746 -0.0009151918930001557
0.018794197589159012 0.004350968170911074 -0.0017986540915444493
0.01879420503973961 0.003915767185389996 -0.0026128573808819056
0.01879420503973961 0.0033300863578915596 -0.003326511476188898
0.018794212490320206 0.002616431098431349 -0.003912194166332483
0.018794212490320206 0.0018022279255092144 -0.004347394220530987
0.018794219940900803 0.0009187663090415299 -0.004615390207618475
0.018794219940900803 -3.066804588058858e-09 -0.004705881234258413
0.018794219940900803 -0.0009187725372612476 -0.004615390207618475
0.018794212490320206 -0.0018022340955212712 -0.004347394220530987
0.018794212490320206 -0.002616437617689371 -0.003912194166332483
0.01879420503973961 -0.003330092178657651 -0.003326511476188898
0.01879420503973961 -0.003915774170309305 -0.0026128566823899746
0.018794197589159012 -0.004350975621491671 -0.0017986530438065529
0.018794190138578415 -0.0046189711429178715 -0.000915191019885242
0.018794182687997818 -0.004709460772573948 3.579290250854683e-06
0.01879417523741722 -0.004618968348950148 0.000922348874155432
0.018794167786836624 -0.004350973758846521 0.001805810839869082
0.018794160336256027 -0.003915772773325443 0.002620014129206538
0.018794160336256027 -0.0033300905488431454 0.003333667991682887
0.01879415288567543 -0.0026164348237216473 0.003919348586350679
0.01879415288567543 -0.0018022313015535474 0.004354550503194332
0.018794145435094833 -0.0009187689865939319 0.004622545093297958
0.018794145435094833 1.0068077482827675e-09 0.004713033325970173
0.018794145435094833 0.0009187711984850466 0.004622543230652809
0.01879415288567543 0.0018022330477833748 0.004354546312242746
0.01879415288567543 0.002616436453536153 0.003919344861060381
0.018794160336256027 0.0033300903160125017 0.003333662636578083
0.018794160336256027 0.003915770910680294 0.002620006911456585
0.018794167786836624 0.00435097049921751 0.0018058017594739795
0.01879417523741722 0.004618964157998562 0.0009223397937603295
0.019948605448007584 0.0036997636780142784 3.586505499697523e-06
0.01994861289858818 0.003628673730418086 -0.0007182018016465008
0.019948620349168777 0.0034181359224021435 -0.001412253244780004
0.019948620349168777 0.0030762406531721354 -0.0020518938545137644
0.019948627799749374 0.0026161272544413805 -0.002612543758004904
0.019948627799749374 0.002055477350950241 -0.0030726564582437277
0.01994863525032997 0.001415836508385837 -0.003414551494643092
0.01994863525032997 0.0007217859965749085 -0.003625089768320322
0.01994863525032997 -2.258985887237941e-09 -0.003696179948747158
0.01994863525032997 -0.000721791060641408 -0.003625089768320322
0.01994863525032997 -0.0014158411649987102 -0.0034145524259656668
0.019948627799749374 -0.0020554824732244015 -0.0030726564582437277
0.019948627799749374 -0.002616132376715541 -0.002612543758004904
0.019948620349168777 -0.0030762457754462957 -0.0020518938545137644
0.019948620349168777 -0.003418141510337591 -0.0014122526627033949
0.01994861289858818 -0.0036286795511841774 -0.000718200986739248
0.019948605448007584 -0.0036997690331190825 3.5873613342118915e-06
0.019948597997426987 -0.0036286788526922464 0.0007253765361383557
0.01994859054684639 -0.003418140346184373 0.0014194264076650143
0.01994859054684639 -0.003076244844123721 0.0020590685307979584
0.019948583096265793 -0.0026161307469010353 0.0026197186671197414
0.019948583096265793 -0.0020554806105792522 0.003079831600189209
0.019948575645685196 -0.0014158396515995264 0.003421725472435355
0.019948575645685196 -0.0007217880920507014 0.0036322628147900105
0.019948575645685196 7.367073617814413e-10 0.0037033511325716972
0.019948575645685196 0.0007217896054498851 0.0036322609521448612
0.019948575645685196 0.0014158403500914574 0.0034217219799757004
0.019948583096265793 0.0020554810762405396 0.003079826245084405
0.019948583096265793 0.0026161307469010353 0.0026197133120149374
0.01994859054684639 0.003076242981478572 0.0020590617787092924
0.01994859054684639 0.0034181377850472927 0.0014194194227457047
0.019948597997426987 0.0036286746617406607 0.0007253696676343679
0.021644476801156998 0.0008741760393604636 3.594032023102045e-06
0.021644476801156998 0.0008573789382353425 -0.00016694821533747017
0.021644484251737595 0.000807633507065475 -0.0003309370658826083
0.021644484251737595 0.0007268512854352593 -0.00048207014333456755
0.021644484251737595 0.0006181367207318544 -0.0006145395454950631
0.021644484251737595 0.00048566737677901983 -0.0007232539355754852
0.021644484251737595 0.0003345344739500433 -0.0008040361572057009
0.021644484251737595 0.00017054565250873566 -0.0008537817629985511
0.021644484251737595 3.103898915668424e-09 -0.0008705789223313332
0.021644484251737595 -0.00017053943884093314 -0.0008537817629985511
0.021644484251737595 -0.0003345283621456474 -0.0008040361572057009
0.021644484251737595 -0.00048566138138994575 -0.0007232539355754852
0.021644484251737595 -0.0006181304343044758 -0.0006145395454950631
0.021644484251737595 -0.0007268451154232025 -0.00048207014333456755
0.021644484251737595 -0.0008076273370534182 -0.0003309370658826083
0.021644476801156998 -0.0008573730010539293 -0.00016694821533747017
0.021644476801156998 -0.0008741698693484068 3.594592271838337e-06
0.021644476801156998 -0.0008573726518079638 0.0001741374289849773
0.0216444693505764 -0.0008076270460151136 0.00033812629408203065
0.0216444693505764 -0.000726844824384898 0.0004892593715339899
0.0216444693505764 -0.0006181301432661712 0.0006217281916178763
0.0216444693505764 -0.0004856610903516412 0.0007304431055672467
0.0216444693505764 -0.00033452778006903827 0.0008112248033285141
0.0216444693505764 -0.0001705389004200697 0.0008609698270447552
0.0216444693505764 3.944149895573901e-09 0.0008777670445851982
0.0216444693505764 0.0001705464965198189 0.0008609698270447552
0.0216444693505764 0.000334535347064957 0.0008112248033285141
0.0216444693505764 0.00048566836630925536 0.0007304419996216893
0.0216444693505764 0.0006181373028084636 0.0006217270856723189
0.0216444693505764 0.0007268519257195294 0.0004892576253041625
0.0216444693505764 0.0008076340309344232 0.0003381246351636946
0.021644476801156998 0.0008573792292736471 0.00017413574096281081
0.017143379896879196 0.005603862460702658 -0.0011111096246168017
0.017143387347459793 0.0052787228487432 -0.0021829509641975164
0.01714339666068554 0.004750724881887436 -0.003170765470713377
0.017143404111266136 0.004040159750729799 -0.004036592785269022
0.017143411561846733 0.0031743324361741543 -0.004747158847749233
0.017143411561846733 0.0021865174639970064 -0.005275155883282423
0.017143411561846733 0.0011146764736622572 -0.005600296426564455
0.017143411561846733 -1.2716793174050167e-09 -0.0057100821286439896
0.017143411561846733 -0.00111467856913805 -0.005600296426564455
0.017143411561846733 -0.0021865202579647303 -0.005275155883282423
0.017143411561846733 -0.0031743349973112345 -0.004747158847749233
0.017143404111266136 -0.004040162079036236 -0.004036592785269022
0.01714339666068554 -0.004750728141516447 -0.003170765470713377
0.017143387347459793 -0.005278727971017361 -0.002182949800044298
0.017143379896879196 -0.005603866185992956 -0.0011111075291410089
0.0171433724462986 -0.005713652819395065 3.5702998957276577e-06
0.017143364995718002 -0.005603866185992956 0.0011182483285665512
0.017143357545137405 -0.005278725642710924 0.0021900900173932314
0.01714335009455681 -0.004750726278871298 0.0031779054552316666
0.01714334264397621 -0.004040159285068512 0.004043732304126024
0.017143335193395615 -0.0031743317376822233 0.004754296038299799
0.017143335193395615 -0.0021865174639970064 0.005282295867800713
0.017143335193395615 -0.0011146748438477516 0.005607434082776308
0.017143335193395615 3.5489831073931555e-09 0.005717219784855843
0.017143335193395615 0.0011146820615977049 0.0056074317544698715
0.017143335193395615 0.0021865235175937414 0.005282291676849127
0.017143335193395615 0.003174338722601533 0.0047542923130095005
0.01714334264397621 0.004040164407342672 0.004043724853545427
0.01714335009455681 0.004750729538500309 0.0031778959091752768
0.017143357545137405 0.005278727039694786 0.002190080238506198
0.017143364995718002 0.005603864789009094 0.0011182386660948396
0.0171433724462986 0.005713648162782192 3.5683715395862237e-06
-0.01913410797715187 0.002569514559581876 0.009342847391963005
-0.01913410797715187 0.0032815621234476566 0.00845882948487997
-0.019134100526571274 0.004157718271017075 0.007194263394922018
-0.019134093075990677 0.00520379887893796 0.005653389263898134
-0.01913408562541008 0.006123378872871399 0.0038954175543040037
-0.019134078174829483 0.006624669302254915 0.001987909898161888
-0.01749301701784134 0.006316641345620155 0.0012597491731867194
-0.017493024468421936 0.0059501477517187595 0.0024679226335138083
-0.017493031919002533 0.005354993045330048 0.0035813837312161922
-0.01749303936958313 0.004554048180580139 0.004557339008897543
-0.017493046820163727 0.0035780949983745813 0.005358286667615175
-0.017493046820163727 0.0024646359961479902 0.005953443702310324
-0.017493054270744324 0.0012564628850668669 0.006319941021502018
-0.017493054270744324 4.186603508316011e-09 0.006443692371249199
-0.017493054270744324 -0.0012564548524096608 0.006319942884147167
-0.017493046820163727 -0.0024646283127367496 0.005953449755907059
-0.017493046820163727 -0.0035780875477939844 0.00535829272121191
-0.01749303936958313 -0.004554043989628553 0.004557346925139427
-0.017493031919002533 -0.0053549897857010365 0.0035813937429338694
-0.017493024468421936 -0.005950146820396185 0.0024679347407072783
-0.01749301701784134 -0.0063166432082653046 0.0012597611639648676
-0.017493009567260742 -0.0064403945580124855 3.3030873964889906e-06
-0.017493002116680145 -0.006316644139587879 -0.001253155991435051
-0.01749299466609955 -0.005950148683041334 -0.0024613298010081053
-0.01749298721551895 -0.005354992114007473 -0.003574789734557271
-0.017492979764938354 -0.00455404631793499 -0.004550744313746691
-0.017492972314357758 -0.0035780915059149265 -0.005351690109819174
-0.017492972314357758 -0.0024646325036883354 -0.005946846213191748
-0.017492961138486862 -0.0012564592761918902 -0.006313341669738293
-0.017492961138486862 -1.3207520632718683e-09 -0.006437090691179037
-0.017492961138486862 0.0012564563658088446 -0.006313340738415718
-0.017492972314357758 0.0024646290112286806 -0.005946846213191748
-0.017492972314357758 0.0035780880134552717 -0.005351690109819174
-0.017492979764938354 0.0045540425926446915 -0.004550744313746691
-0.01749298721551895 0.005354987923055887 -0.003574789734557271
-0.01749299466609955 0.005950144492089748 -0.00246133073233068
-0.017493002116680145 0.006316639482975006 -0.001253157970495522
-0.017493024468421936 0.006440388970077038 3.3000833354890347e-06
-0.019134115427732468 0.0013177335495129228 0.009367753751575947
-0.019134115427732468 4.3860231002668115e-09 0.009419755078852177
-0.019134115427732468 -0.0013177251676097512 0.009367757476866245
-0.01913410797715187 -0.002569506410509348 0.009342857636511326
-0.01913410797715187 -0.003281555138528347 0.008458838798105717
-0.019134100526571274 -0.004157715011388063 0.007194276433438063
-0.019134093075990677 -0.0052037970162928104 0.005653405096381903
-0.01913408562541008 -0.00612337701022625 0.0038954366464167833
-0.019134078174829483 -0.0066246711649000645 0.0019879289902746677
-0.019134070724248886 -0.007051099091768265 4.187293598079123e-06
-0.01913406327366829 -0.006624672096222639 -0.0019795557018369436
-0.019134055823087692 -0.0061233798041939735 -0.003887063590809703
-0.019134048372507095 -0.00520379887893796 -0.005645035300403833
-0.0191340409219265 -0.004157716874033213 -0.007185908034443855
-0.0191340334713459 -0.0032815588638186455 -0.008450469002127647
-0.0191340334713459 -0.0025695108342915773 -0.009334485046565533
-0.019134026020765305 -0.0013177299406379461 -0.009502771310508251
-0.019134026020765305 -1.3898956430224985e-09 -0.009483078494668007
-0.019134026020765305 0.0013177267974242568 -0.009502769447863102
-0.0191340334713459 0.0025695068761706352 -0.009334485046565533
-0.0191340334713459 0.0032815560698509216 -0.008450469002127647
-0.0191340409219265 0.004157713148742914 -0.007185908034443855
-0.019134048372507095 0.005203793756663799 -0.005645035300403833
-0.019134055823087692 0.006123374681919813 -0.0038870656862854958
-0.01913406327366829 0.006624666508287191 -0.001979558728635311
-0.01913408562541008 0.00705109303817153 4.182551037956728e-06
-0.02045993134379387 0.002569514559581876 0.009342847391963005
-0.02045993134379387 0.0032815621234476566 0.00845882948487997
-0.020459923893213272 0.004157718271017075 0.007194263860583305
-0.020459916442632675 0.00520379887893796 0.0056533897295594215
-0.020459908992052078 0.006123378872871399 0.0038954175543040037
-0.02045990154147148 0.006624669302254915 0.0019879096653312445
-0.020459938794374466 0.0013177335495129228 0.009367753751575947
-0.020459938794374466 4.3860231002668115e-09 0.009419755078852177
-0.020459938794374466 -0.0013177251676097512 0.009367757476866245
-0.02045993134379387 -0.002569506410509348 0.009342857636511326
-0.02045993134379387 -0.003281555138528347 0.008458838798105717
-0.020459923893213272 -0.004157715011388063 0.00719427689909935
-0.020459916442632675 -0.0052037970162928104 0.00565340556204319
-0.020459908992052078 -0.00612337701022625 0.0038954366464167833
-0.02045990154147148 -0.0066246711649000645 0.001987928757444024
-0.020459890365600586 -0.007051099091768265 4.187393642496318e-06
-0.02045988291501999 -0.006624672096222639 -0.0019795557018369436
-0.020459875464439392 -0.0061233798041939735 -0.003887063590809703
-0.020459868013858795 -0.00520379887893796 -0.005645034834742546
-0.020459860563278198 -0.004157716874033213 -0.007185907568782568
-0.0204598531126976 -0.0032815588638186455 -0.008450469002127647
-0.0204598531126976 -0.0025695108342915773 -0.009334485046565533
-0.020459845662117004 -0.0013177299406379461 -0.009502771310508251
-0.020459845662117004 -1.3898956430224985e-09 -0.009483078494668007
-0.020459845662117004 0.0013177267974242568 -0.009502769447863102
-0.0204598531126976 0.0025695068761706352 -0.009334485046565533
-0.0204598531126976 0.0032815560698509216 -0.008450469002127647
-0.020459860563278198 0.004157713148742914 -0.007185907568782568
-0.020459868013858795 0.005203793756663799 -0.005645034834742546
-0.020459875464439392 0.006123374681919813 -0.0038870656862854958
-0.02045988291501999 0.006624666508287191 -0.001979558728635311
-0.020459908992052078 0.00705109303817153 4.182651082373923e-06
-0.020857971161603928 0.0020230256486684084 0.007354301400482655
-0.020857971161603928 0.0025836338754743338 0.0066582984291017056
-0.02085796371102333 0.0032734472770243883 0.0056626820005476475
-0.020857956260442734 0.004097045864909887 0.004449523985385895
-0.02085794508457184 0.004821047652512789 0.0030654403381049633
-0.02085793763399124 0.005215723067522049 0.0015636248281225562
-0.020857978612184525 0.0010374756529927254 0.0073739103972911835
-0.020857978612184525 3.450566277152234e-09 0.007414852734655142
-0.020857978612184525 -0.0010374690173193812 0.007373913656920195
-0.020857971161603928 -0.002023019129410386 0.0073543088510632515
-0.020857971161603928 -0.002583628287538886 0.006658304948359728
-0.02085796371102333 -0.003273444715887308 0.0056626927107572556
-0.020857956260442734 -0.004097044467926025 0.004449536558240652
-0.02085794508457184 -0.004821046255528927 0.003065455472096801
-0.02085793763399124 -0.005215724464505911 0.00156363972928375
-0.020857930183410645 -0.005551458802074194 1.8038967937172856e-06
-0.020857922732830048 -0.005215724930167198 -0.0015600331826135516
-0.02085791528224945 -0.004821048118174076 -0.0030618489254266024
-0.020857907831668854 -0.004097045864909887 -0.004445931874215603
-0.020857900381088257 -0.0032734463457018137 -0.005659088958054781
-0.02085789293050766 -0.00258363108150661 -0.006654701661318541
-0.02085789293050766 -0.002023022621870041 -0.007350703235715628
-0.020857885479927063 -0.0010374727426096797 -0.007483197841793299
-0.020857885479927063 -1.0969197772325856e-09 -0.0074676931835711
-0.020857885479927063 0.0010374702978879213 -0.0074831959791481495
-0.02085789293050766 0.002023019827902317 -0.007350703235715628
-0.02085789293050766 0.0025836287532001734 -0.006654701661318541
-0.020857900381088257 0.00327344355173409 -0.005659088958054781
-0.020857907831668854 0.0040970416739583015 -0.004445931874215603
-0.02085791528224945 0.004821044392883778 -0.0030618507880717516
-0.020857922732830048 0.005215720739215612 -0.00156003562733531
-0.02085794508457184 0.005551454145461321 1.8001622947849683e-06
-0.020857971161603928 0.000955049239564687 0.0034681835677474737
-0.020857971161603928 0.0012197066098451614 0.003139607608318329
-0.02085796371102333 0.0015453604282811284 0.002669587731361389
-0.020857956260442734 0.0019341727020218968 0.0020968683529645205
-0.02085794508457184 0.0022759661078453064 0.0014434570912271738
-0.02085793763399124 0.0024622883647680283 0.0007344654877670109
-0.020857978612184525 0.000489781319629401 0.0034774409141391516
-0.020857978612184525 1.5233337924414059e-09 0.0034967688843607903
-0.020857978612184525 -0.0004897784092463553 0.00347744207829237
-0.020857971161603928 -0.0009550464455969632 0.0034681870602071285
-0.020857971161603928 -0.0012197039322927594 0.0031396106351166964
-0.02085796371102333 -0.0015453591477125883 0.002669592620804906
-0.020857956260442734 -0.0019341720035299659 0.002096874173730612
-0.02085794508457184 -0.0022759658750146627 0.0014434640761464834
-0.02085793763399124 -0.0024622895289212465 0.0007344725308939815
-0.020857930183410645 -0.0026207861956208944 -2.853937985491939e-06
-0.020857922732830048 -0.00246228976175189 -0.0007401809561997652
-0.02085791528224945 -0.002275967039167881 -0.0014491723850369453
-0.020857907831668854 -0.0019341727020218968 -0.002102583646774292
-0.020857900381088257 -0.001545359962619841 -0.002675302792340517
-0.02085789293050766 -0.0012197053292766213 -0.003145321039482951
-0.02085789293050766 -0.0009550480754114687 -0.0034738960675895214
-0.020857885479927063 -0.0004897802136838436 -0.003536445554345846
-0.020857885479927063 -6.234870397747727e-10 -0.0035291260574012995
-0.020857885479927063 0.0004897788166999817 -0.0035364446230232716
-0.02085789293050766 0.0009550463291816413 -0.0034738960675895214
-0.02085789293050766 0.001219704281538725 -0.003145321039482951
-0.020857900381088257 0.001545358682051301 -0.002675302792340517
-0.020857907831668854 0.0019341707229614258 -0.002102583646774292
-0.02085791528224945 0.0022759647108614445 -0.00144917331635952
-0.020857922732830048 0.00246228720061481 -0.0007401820039376616
-0.02085794508457184 0.0026207834016531706 -2.8557010409713257e-06
0.021901730448007584 0.00021039898274466395 4.544266266748309e-05
0.021901722997426987 0.0001981922541745007 8.568301564082503e-05
0.021901722997426987 0.00017836957704275846 0.0001227687462233007
0.021901722997426987 0.00015169265680015087 0.00015527469804510474
0.021901722997426987 0.00011918682139366865 0.00018195167649537325
0.021901722997426987 8.210109081119299e-05 0.00020177452825009823
0.021901722997426987 4.186073783785105e-05 0.00021398119861260056
0.021901722997426987 1.2212478139872474e-08 0.00021810299949720502
0.021901722997426987 -4.183637793175876e-05 0.00021398119861260056
0.021901722997426987 -8.20767309051007e-05 0.00020177452825009823
0.021901722997426987 -0.00011916254879906774 0.00018195196753367782
0.021901722997426987 -0.0001516684133093804 0.0001552749890834093
0.021901722997426987 -0.00017834530444815755 0.0001227691536769271
0.021901722997426987 -0.0001981680397875607 8.568342309445143e-05
0.021901730448007584 -0.00021037482656538486 4.5443070121109486e-05
0.021901730448007584 -0.00021449662744998932 3.5944769933848875e-06
0.021901730448007584 -0.0002103749429807067 -3.825410385616124e-05
0.02190173789858818 -0.00019816809799522161 -7.849445682950318e-05
0.02190173789858818 -0.00017834542086347938 -0.0001155802165158093
0.02190173789858818 -0.00015166850062087178 -0.00014808616833761334
0.02190173789858818 -0.00011916260700672865 -0.00017476303037256002
0.02190173789858818 -8.207687642425299e-05 -0.00019458570750430226
0.02190173789858818 -4.1836523450911045e-05 -0.00020679255248978734
0.02190173789858818 1.2006294625166447e-08 -0.00021091429516673088
0.02190173789858818 4.186053411103785e-05 -0.00020679255248978734
0.02190173789858818 8.210088708437979e-05 -0.00019458570750430226
0.02190173789858818 0.000119186588563025 -0.00017476303037256002
0.02190173789858818 0.0001516925112809986 -0.00014808616833761334
0.02190173789858818 0.00017836940241977572 -0.0001155802165158093
0.02190173789858818 0.00019819213775917888 -7.849445682950318e-05
0.021901730448007584 0.00021039886632934213 -3.825410385616124e-05
0.021901730448007584 0.00021452060900628567 3.5943394323112443e-06
