-0.06316572427749634 0.06325443834066391 -0.035721369087696075
-0.06316573917865753 -0.06324712187051773 -0.035721369087696075
0.06318430602550507 0.06325443834066391 -0.035721369087696075
0.06318429857492447 -0.06324712187051773 -0.035721369087696075
-0.06316573172807693 0.043633900582790375 -0.035721369087696075
-0.06316573172807693 0.0129548953846097 -0.035721369087696075
-0.06316573172807693 -0.01234541554003954 -0.035721369087696075
-0.06316573172807693 -0.04425899684429169 -0.035721369087696075
0.06318429857492447 -0.044259000569581985 -0.035721369087696075
0.06318429857492447 -0.012345419265329838 -0.035721369087696075
0.06318429857492447 0.012954890727996826 -0.035721369087696075
0.06318429857492447 0.043633896857500076 -0.035721369087696075
0.04374990984797478 0.06325443834066391 -0.035721369087696075
0.012181290425360203 0.06325443834066391 -0.035721369087696075
-0.013088715262711048 0.06325443834066391 -0.035721369087696075
-0.04288855940103531 0.06325443834066391 -0.035721369087696075
-0.0428885743021965 -0.06324712187051773 -0.035721369087696075
-0.01308872178196907 -0.06324712187051773 -0.035721369087696075
0.012181284837424755 -0.06324712187051773 -0.035721369087696075
0.04374989494681358 -0.06324712187051773 -0.035721369087696075
-0.04581941291689873 0.04662191867828369 -0.035721369087696075
-0.013986240141093731 0.04662191867828369 -0.035721369087696075
0.013016355223953724 0.04662191867828369 -0.035721369087696075
0.046759266406297684 0.04662191867828369 -0.035721369087696075
-0.04581941291689873 0.01384309958666563 -0.035721369087696075
-0.01398624200373888 0.013843097724020481 -0.035721369087696075
0.013016355223953724 0.013843097724020481 -0.035721369087696075
0.04675925895571709 0.013843097724020481 -0.035721369087696075
-0.04581941291689873 -0.01319187879562378 -0.035721369087696075
-0.01398624386638403 -0.013191880658268929 -0.035721369087696075
0.013016353361308575 -0.013191880658268929 -0.035721369087696075
0.04675925895571709 -0.013191881589591503 -0.035721369087696075
-0.045819416642189026 -0.04729719087481499 -0.035721369087696075
-0.013986245729029179 -0.04729719087481499 -0.035721369087696075
0.013016351498663425 -0.04729719087481499 -0.035721369087696075
0.04675925895571709 -0.04729719087481499 -0.035721369087696075
-0.07593180239200592 0.07603965699672699 0.021464206278324127
-0.07593180984258652 -0.07603009045124054 0.021464206278324127
0.07595578581094742 0.0760396420955658 0.021464206278324127
0.07595577090978622 -0.07603009790182114 0.021464206278324127
-0.08302147686481476 0.05733316019177437 0.021464206278324127
-0.08302147686481476 0.017027132213115692 0.021464206278324127
-0.08302147686481476 -0.016226092353463173 0.021464206278324127
-0.08302147686481476 -0.058188050985336304 0.021464206278324127
0.08304551243782043 -0.0581880658864975 0.021464206278324127
0.08304551243782043 -0.01622609794139862 0.021464206278324127
0.08304551243782043 0.017027128487825394 0.021464206278324127
0.08304551243782043 0.057333141565322876 0.021464206278324127
0.05762234330177307 0.0831378623843193 0.021464206278324127
0.016010191291570663 0.0831378623843193 0.021464206278324127
-0.017203208059072495 0.0831378623843193 0.021464206278324127
-0.05625011771917343 0.0831378623843193 0.021464206278324127
-0.056250136345624924 -0.08312828093767166 0.021464206278324127
-0.01720321737229824 -0.08312828093767166 0.021464206278324127
0.016010180115699768 -0.08312828093767166 0.021464206278324127
0.05762232095003128 -0.08312828093767166 0.021464206278324127
-0.07593180239200592 0.07603965699672699 0.02755582146346569
-0.07593180984258652 -0.07603009045124054 0.02755582146346569
0.07595578581094742 0.0760396420955658 0.02755582146346569
0.07595577090978622 -0.07603009790182114 0.02755582146346569
-0.08302147686481476 0.05733316019177437 0.02755582146346569
-0.08302147686481476 0.017027132213115692 0.02755582146346569
-0.08302147686481476 -0.016226092353463173 0.02755582146346569
-0.08302147686481476 -0.058188050985336304 0.02755582146346569
0.08304551243782043 -0.0581880658864975 0.02755582146346569
0.08304551243782043 -0.01622609794139862 0.02755582146346569
0.08304551243782043 0.017027128487825394 0.02755582146346569
0.08304551243782043 0.057333141565322876 0.02755582146346569
0.05762234330177307 0.0831378623843193 0.02755582146346569
0.016010191291570663 0.0831378623843193 0.02755582146346569
-0.017203208059072495 0.0831378623843193 0.02755582146346569
-0.05625011771917343 0.0831378623843193 0.02755582146346569
-0.056250136345624924 -0.08312828093767166 0.02755582146346569
-0.01720321737229824 -0.08312828093767166 0.02755582146346569
0.016010180115699768 -0.08312828093767166 0.02755582146346569
0.05762232095003128 -0.08312828093767166 0.02755582146346569
-0.0708915963768959 0.07099244743585587 0.020557334646582603
-0.0775107592344284 0.05353110283613205 0.020557338371872902
-0.016061272472143173 0.07761948555707932 0.020557338371872902
-0.05254754796624184 0.07761948555707932 0.020557334646582603
-0.07751075178384781 0.015896951779723167 0.020557334646582603
-0.0708916187286377 -0.07098343223333359 0.020557338371872902
-0.05254756659269333 -0.07761049270629883 0.020557334646582603
-0.07751075178384781 -0.015149041078984737 0.020557334646582603
-0.01606128178536892 -0.07761049270629883 0.020557334646582603
-0.0775107592344284 -0.054322198033332825 0.020557334646582603
0.014947525225579739 -0.07761049270629883 0.020557334646582603
0.07091420888900757 -0.07098343223333359 0.020557338371872902
0.0775332897901535 -0.054322198033332825 0.020557338371872902
0.05376644432544708 -0.07761049270629883 0.020557338371872902
0.07091421633958817 0.07099244743585587 0.020557338371872902
0.05376645550131798 0.07761948555707932 0.020557338371872902
0.0775332897901535 -0.01514904573559761 0.020557334646582603
0.01494753360748291 0.07761948555707932 0.020557338371872902
0.0775332897901535 0.01589694619178772 0.020557338371872902
0.0775332897901535 0.05353110283613205 0.020557338371872902
-0.07742967456579208 0.05347516015172005 0.019678425043821335
-0.05249306187033653 0.07753828912973404 0.019678425043821335
-0.07742965966463089 0.015880322083830833 0.019678421318531036
-0.052493076771497726 -0.07752929627895355 0.019678421318531036
-0.07742965966463089 -0.015133191831409931 0.019678421318531036
-0.016044478863477707 -0.07752929627895355 0.019678421318531036
-0.07742967456579208 -0.05426531657576561 0.019678421318531036
0.014931891113519669 -0.07752929627895355 0.019678425043821335
0.07745219022035599 -0.05426531657576561 0.019678425043821335
0.05370970815420151 -0.07752929627895355 0.019678425043821335
0.0537097193300724 0.07753828912973404 0.019678425043821335
0.07745219022035599 -0.015133197419345379 0.019678421318531036
0.014931896701455116 0.07753828912973404 0.019678425043821335
0.07745219022035599 0.015880316495895386 0.019678425043821335
-0.07081743329763412 0.07091818004846573 0.019678425043821335
-0.01604446955025196 0.07753828912973404 0.019678425043821335
-0.07081745564937592 -0.07090916484594345 0.019678425043821335
0.0708400309085846 -0.07090916484594345 0.019678425043821335
0.07084004580974579 0.07091818004846573 0.019678425043821335
0.07745219022035599 0.05347516015172005 0.019678425043821335
0.08304551243782043 0.057333141565322876 0.02335933968424797
0.07595578581094742 0.0760396420955658 0.02335933968424797
-0.01720321737229824 -0.08312828093767166 0.02335933968424797
0.016010180115699768 -0.08312828093767166 0.02335933968424797
0.08304551243782043 0.017027128487825394 0.02335933968424797
-0.07593180239200592 0.07603965699672699 0.02335933968424797
-0.08302147686481476 0.05733316019177437 0.02335933968424797
0.05762232095003128 -0.08312828093767166 0.02335933968424797
0.05762234330177307 0.0831378623843193 0.02335933968424797
-0.08302147686481476 0.017027132213115692 0.02335933968424797
0.016010191291570663 0.0831378623843193 0.02335933968424797
-0.08302147686481476 -0.016226092353463173 0.02335933968424797
-0.017203208059072495 0.0831378623843193 0.02335933968424797
-0.08302147686481476 -0.058188050985336304 0.02335933968424797
-0.05625011771917343 0.0831378623843193 0.02335933968424797
0.07595577090978622 -0.07603009790182114 0.02335933968424797
0.08304551243782043 -0.0581880658864975 0.02335933968424797
-0.07593180984258652 -0.07603009045124054 0.02335933968424797
-0.056250136345624924 -0.08312828093767166 0.02335933968424797
0.08304551243782043 -0.01622609794139862 0.02335933968424797
-0.07593180239200592 0.07603965699672699 0.02755582146346569
-0.07593180984258652 -0.07603009045124054 0.02755582146346569
0.07595578581094742 0.0760396420955658 0.02755582146346569
0.07595577090978622 -0.07603009790182114 0.02755582146346569
-0.08302147686481476 0.05733316019177437 0.02755582146346569
-0.08302147686481476 0.017027132213115692 0.02755582146346569
-0.08302147686481476 -0.016226092353463173 0.02755582146346569
-0.08302147686481476 -0.058188050985336304 0.02755582146346569
0.08304551243782043 -0.0581880658864975 0.02755582146346569
0.08304551243782043 -0.01622609794139862 0.02755582146346569
0.08304551243782043 0.017027128487825394 0.02755582146346569
0.08304551243782043 0.057333141565322876 0.02755582146346569
0.05762234330177307 0.0831378623843193 0.02755582146346569
0.016010191291570663 0.0831378623843193 0.02755582146346569
-0.017203208059072495 0.0831378623843193 0.02755582146346569
-0.05625011771917343 0.0831378623843193 0.02755582146346569
-0.056250136345624924 -0.08312828093767166 0.02755582146346569
-0.01720321737229824 -0.08312828093767166 0.02755582146346569
0.016010180115699768 -0.08312828093767166 0.02755582146346569
0.05762232095003128 -0.08312828093767166 0.02755582146346569
-0.07253533601760864 0.07263847440481186 0.02755582146346569
-0.07253535836935043 -0.07262929528951645 0.02755582146346569
0.07255841046571732 0.07263847440481186 0.02755582146346569
0.07255839556455612 -0.07262929528951645 0.02755582146346569
-0.07930795103311539 0.0547710582613945 0.02755582146346569
-0.07930795103311539 0.01626553386449814 0.02755582146346569
-0.07930795103311539 -0.015500294975936413 0.02755582146346569
-0.07930795103311539 -0.05558295547962189 0.02755582146346569
0.07933097332715988 -0.05558295547962189 0.02755582146346569
0.07933097332715988 -0.01550030056387186 0.02755582146346569
0.07933097332715988 0.01626553013920784 0.02755582146346569
0.07933097332715988 0.0547710545361042 0.02755582146346569
0.055023957043886185 0.07941918820142746 0.02755582146346569
0.015294093638658524 0.07941918820142746 0.02755582146346569
-0.016433686017990112 0.07941918820142746 0.02755582146346569
-0.053755056113004684 0.07941918820142746 0.02755582146346569
-0.05375507101416588 -0.07941000163555145 0.02755582146346569
-0.01643369533121586 -0.07941000163555145 0.02755582146346569
0.015294087119400501 -0.07941000163555145 0.02755582146346569
0.05502394586801529 -0.07941000163555145 0.02755582146346569
-0.06711381673812866 0.06720942258834839 0.02755582146346569
-0.06711383163928986 -0.06720081716775894 0.02755582146346569
0.06713542342185974 0.06720942258834839 0.02755582146346569
0.06713540852069855 -0.06720081716775894 0.02755582146346569
-0.07338029146194458 0.05068137124180794 0.02755582146346569
-0.07338029146194458 0.015049850568175316 0.02755582146346569
-0.07338029146194458 -0.014341754838824272 0.02755582146346569
-0.07338029146194458 -0.05142461135983467 0.02755582146346569
0.07340172678232193 -0.051424622535705566 0.02755582146346569
0.07340172678232193 -0.01434176042675972 0.02755582146346569
0.07340172678232193 0.015049844048917294 0.02755582146346569
0.07340172678232193 0.05068136751651764 0.02755582146346569
0.05087636038661003 0.07348329573869705 0.02755582146346569
0.01415104791522026 0.07348329573869705 0.02755582146346569
-0.015205354429781437 0.07348329573869705 0.02755582146346569
-0.04977235570549965 0.07348329573869705 0.02755582146346569
-0.049772366881370544 -0.07347475737333298 0.02755582146346569
-0.015205362811684608 -0.07347475737333298 0.02755582146346569
0.014151038601994514 -0.07347475737333298 0.02755582146346569
0.05087634548544884 -0.07347475737333298 0.02755582146346569
-0.06835828721523285 0.06845560669898987 0.02755582146346569
-0.06835829466581345 -0.06844687461853027 0.02755582146346569
0.068380206823349 0.06845560669898987 0.02755582146346569
0.0683801919221878 -0.06844687461853027 0.02755582146346569
-0.0747409388422966 0.05162011831998825 0.02755582146346569
-0.0747409388422966 0.015328895300626755 0.02755582146346569
-0.0747409388422966 -0.014607689343392849 0.02755582146346569
-0.0747409388422966 -0.052379123866558075 0.02755582146346569
0.07476271688938141 -0.05237913504242897 0.02755582146346569
0.07476271688938141 -0.014607694931328297 0.02755582146346569
0.07476271688938141 0.015328890644013882 0.02755582146346569
0.07476271688938141 0.051620110869407654 0.02755582146346569
0.05182839557528496 0.0748458281159401 0.02755582146346569
0.014413421973586082 0.0748458281159401 0.02755582146346569
-0.0154873076826334 0.0748458281159401 0.02755582146346569
-0.0506865456700325 0.0748458281159401 0.02755582146346569
-0.050686564296483994 -0.07483712583780289 0.02755582146346569
-0.015487316064536572 -0.07483712583780289 0.02755582146346569
0.014413412660360336 -0.07483712583780289 0.02755582146346569
0.05182838439941406 -0.07483712583780289 0.02755582146346569
-0.06516245752573013 0.0652538612484932 -0.027225229889154434
-0.06516246497631073 -0.0652463287115097 -0.027225229889154434
0.0651814192533493 0.0652538612484932 -0.027225229889154434
0.06518140435218811 -0.0652463287115097 -0.027225229889154434
-0.06516246497631073 0.04501144215464592 -0.027225229889154434
-0.06516246497631073 0.013364375568926334 -0.027225229889154434
-0.06516246497631073 -0.012735657393932343 -0.027225229889154434
-0.06516246497631073 -0.04565967991948128 -0.027225229889154434
0.06518141180276871 -0.045659687370061874 -0.027225229889154434
0.06518141180276871 -0.012735662050545216 -0.027225229889154434
0.06518141180276871 0.013364370912313461 -0.027225229889154434
0.06518141180276871 0.04501143470406532 -0.027225229889154434
0.045125991106033325 0.0652538612484932 -0.027225229889154434
0.012566237710416317 0.0652538612484932 -0.027225229889154434
-0.013502536341547966 0.0652538612484932 -0.027225229889154434
-0.04425106197595596 0.0652538612484932 -0.027225229889154434
-0.04425107315182686 -0.0652463287115097 -0.027225229889154434
-0.013502541929483414 -0.0652463287115097 -0.027225229889154434
0.01256623025983572 -0.0652463287115097 -0.027225229889154434
0.04512597247958183 -0.0652463287115097 -0.027225229889154434
-0.058603908866643906 0.058686211705207825 -0.027225229889154434
-0.0586039237678051 -0.05867939442396164 -0.027225229889154434
0.05862109735608101 0.058686211705207825 -0.027225229889154434
0.05862108990550041 -0.05867939442396164 -0.027225229889154434
-0.0586039163172245 0.04048648476600647 -0.027225229889154434
-0.0586039163172245 0.01201929897069931 -0.027225229889154434
-0.0586039163172245 -0.011453818529844284 -0.027225229889154434
-0.0586039163172245 -0.041058775037527084 -0.027225229889154434
0.05862109735608101 -0.04105877876281738 -0.027225229889154434
0.05862109735608101 -0.011453824117779732 -0.027225229889154434
0.05862109735608101 0.012019294314086437 -0.027225229889154434
0.05862109735608101 0.04048648104071617 -0.027225229889154434
0.040536947548389435 0.058686211705207825 -0.027225229889154434
0.011301529593765736 0.058686211705207825 -0.027225229889154434
-0.012143471278250217 0.058686211705207825 -0.027225229889154434
-0.03984447196125984 0.058686211705207825 -0.027225229889154434
-0.039844486862421036 -0.05867939442396164 -0.027225229889154434
-0.01214347779750824 -0.05867939442396164 -0.027225229889154434
0.011301524005830288 -0.05867939442396164 -0.027225229889154434
0.04053693637251854 -0.05867939442396164 -0.027225229889154434
-0.041015706956386566 0.041073545813560486 -0.027225229889154434
-0.04101571440696716 -0.04106864705681801 -0.027225229889154434
0.04102809727191925 0.04107353836297989 -0.027225229889154434
0.041028089821338654 -0.041068654507398605 -0.027225229889154434
-0.041015710681676865 0.028351765125989914 -0.027225229889154434
-0.041015710681676865 0.008412167429924011 -0.027225229889154434
-0.041015710681676865 -0.008016268722712994 -0.027225229889154434
-0.041015710681676865 -0.028720378875732422 -0.027225229889154434
0.04102809354662895 -0.02872038446366787 -0.027225229889154434
0.04102809354662895 -0.008016271516680717 -0.027225229889154434
0.04102809354662895 0.008412164635956287 -0.027225229889154434
0.04102809354662895 0.028351761400699615 -0.027225229889154434
0.028230370953679085 0.04107354208827019 -0.027225229889154434
0.007909929379820824 0.04107354208827019 -0.027225229889154434
-0.00849882885813713 0.04107354208827019 -0.027225229889154434
-0.028027217835187912 0.04107354208827019 -0.027225229889154434
-0.028027229011058807 -0.04106865078210831 -0.027225229889154434
-0.008498833514750004 -0.04106865078210831 -0.027225229889154434
0.00790992472320795 -0.04106865078210831 -0.027225229889154434
0.028230363503098488 -0.04106865078210831 -0.027225229889154434
-0.02679588831961155 0.02683395892381668 -0.027225229889154434
-0.026795892044901848 -0.02683061547577381 -0.027225229889154434
0.026804398745298386 0.02683395892381668 -0.027225229889154434
0.026804396882653236 -0.02683061547577381 -0.027225229889154434
-0.02679588831961155 0.018541021272540092 -0.027225229889154434
-0.0267958901822567 0.005495853256434202 -0.027225229889154434
-0.0267958901822567 -0.0052370596677064896 -0.027225229889154434
-0.026795892044901848 -0.01874496042728424 -0.027225229889154434
0.026804396882653236 -0.01874496228992939 -0.027225229889154434
0.026804398745298386 -0.005237060599029064 -0.027225229889154434
0.026804398745298386 0.005495850928127766 -0.027225229889154434
0.026804398745298386 0.018541017547249794 -0.027225229889154434
0.018280692398548126 0.02683395892381668 -0.027225229889154434
0.005167869850993156 0.02683395892381668 -0.027225229889154434
-0.005552187561988831 0.02683395892381668 -0.027225229889154434
-0.018473131582140923 0.02683395892381668 -0.027225229889154434
-0.01847313717007637 -0.02683061547577381 -0.027225229889154434
-0.005552190821617842 -0.02683061547577381 -0.027225229889154434
0.005167866125702858 -0.02683061547577381 -0.027225229889154434
0.01828068681061268 -0.02683061547577381 -0.027225229889154434
-0.010417514480650425 0.010432813316583633 -0.027225229889154434
-0.010417515411973 -0.010431251488626003 -0.027225229889154434
0.010421556420624256 0.010432812385261059 -0.027225229889154434
0.010421554557979107 -0.010431251488626003 -0.027225229889154434
-0.010417515411973 0.0072410088032484055 -0.027225229889154434
-0.010417515411973 0.00213684537447989 -0.027225229889154434
-0.010417515411973 -0.0020359670743346214 -0.027225229889154434
-0.010417515411973 -0.007255277130752802 -0.027225229889154434
0.010421555489301682 -0.0072552794590592384 -0.027225229889154434
0.010421555489301682 -0.0020359677728265524 -0.027225229889154434
0.010421555489301682 0.002136844675987959 -0.027225229889154434
0.010421555489301682 0.007241007871925831 -0.027225229889154434
0.00682065449655056 0.010432813316583633 -0.027225229889154434
0.002009565709158778 0.010432813316583633 -0.027225229889154434
-0.0021582492627203465 0.010432813316583633 -0.027225229889154434
-0.007468739058822393 0.010432813316583633 -0.027225229889154434
-0.007468741852790117 -0.010431251488626003 -0.027225229889154434
-0.0021582504268735647 -0.010431251488626003 -0.027225229889154434
0.00200956454500556 -0.010431251488626003 -0.027225229889154434
0.006820654030889273 -0.010431251488626003 -0.027225229889154434
-0.06830830872058868 0.0471818670630455 -0.026254447177052498
-0.04636470973491669 0.06840407103300095 -0.026254447177052498
-0.06830830127000809 0.014009549282491207 -0.026254447177052498
-0.046364717185497284 -0.06839621067047119 -0.026254447177052498
-0.06830830127000809 -0.013350500725209713 -0.026254447177052498
-0.014154426753520966 -0.06839621067047119 -0.026254447177052498
-0.06830830872058868 -0.04786653816699982 -0.026254447177052498
0.013172853738069534 -0.06839621067047119 -0.0262544434517622
0.06832811236381531 -0.047866541892290115 -0.0262544434517622
0.047327134758234024 -0.06839621067047119 -0.0262544434517622
0.04732714965939522 0.06840407103300095 -0.0262544434517622
0.06832811236381531 -0.013350505381822586 -0.026254447177052498
0.013172861188650131 0.06840407103300095 -0.0262544434517622
0.06832811236381531 0.01400954369455576 -0.0262544434517622
-0.06830829381942749 0.06840407103300095 -0.026254447177052498
-0.014154421165585518 0.06840407103300095 -0.026254447177052498
-0.06830830872058868 -0.06839621067047119 -0.0262544434517622
0.06832810491323471 -0.06839621067047119 -0.0262544434517622
0.0683281198143959 0.06840407103300095 -0.0262544434517622
0.06832811236381531 0.0471818633377552 -0.026254447177052498
