0.10042519122362137 4.105701112422366e-09 0.0013349381042644382
0.09979736804962158 4.078258175610472e-09 0.0020236310083419085
0.09939949959516525 4.060866753974324e-09 0.0022699765395373106
0.09896315634250641 4.041793566500473e-09 0.002439020900055766
-0.09850316494703293 -4.589733482163183e-09 0.002525015501305461
-0.09896314144134521 -4.6098400652283544e-09 0.0024390295147895813
-0.09939949959516525 -4.628913696791415e-09 0.002269985154271126
-0.09979736059904099 -4.646304674338353e-09 0.0020236396230757236
-0.1001431792974472 -4.661421026952439e-09 0.0017083812272176147
-0.10042518377304077 -4.673747611150247e-09 0.0013349461369216442
-0.10063377022743225 -4.682865206717679e-09 0.000916051329113543
0.10076183825731277 9.090812091017142e-05 0.0004570007149595767
0.10063377767801285 0.00017871618911158293 0.0008984417072497308
0.10042519122362137 0.0002604384790174663 0.0013092875014990568
0.1001431941986084 0.00033329191501252353 0.001675546751357615
0.09979736804962158 0.0003947957302443683 0.001984747126698494
0.09939949959516525 0.00044285535113886 0.0022263594437390566
0.09896315634250641 0.0004758342693094164 0.002392155583947897
0.09850316494703293 0.0004926092806272209 0.0024764894042164087
-0.09850316494703293 0.0004926006658934057 0.002476498018950224
-0.09896314144134521 0.0004758255963679403 0.002392164198681712
-0.09939949959516525 0.0004428466781973839 0.0022263680584728718
-0.09979736059904099 0.0003947869990952313 0.001984755741432309
-0.1001431792974472 0.0003332831256557256 0.0016755552496761084
-0.10042518377304077 0.00026042957324534655 0.0013092955341562629
-0.10063377022743225 0.00017870725423563272 0.0008984497981145978
-0.10076182335615158 9.08990841708146e-05 0.00045700831105932593
0.10076183825731277 0.0001783187035471201 0.0004304849135223776
0.10063377767801285 0.0003505604399833828 0.0008463133708573878
0.10042519122362137 0.0005108644254505634 0.0012333214981481433
0.1001431941986084 0.0006537717999890447 0.0015783302951604128
0.09979736804962158 0.0007744157919660211 0.0018695907201617956
0.09939949959516525 0.000868688162881881 0.0020971845369786024
0.09896315634250641 0.0009333785274066031 0.0022533610463142395
0.09850316494703293 0.0009662840748205781 0.002332801930606365
-0.09850316494703293 0.0009662754600867629 0.0023328105453401804
-0.09896314144134521 0.0009333699126727879 0.0022533696610480547
-0.09939949959516525 0.000868679431732744 0.0020971931517124176
-0.09979736059904099 0.000774407060816884 0.0018695994513109326
-0.1001431792974472 0.000653762836009264 0.0015783387934789062
-0.10042518377304077 0.0005108554614707828 0.001233329763635993
-0.10063377022743225 0.00035055133048444986 0.0008463214617222548
-0.10076182335615158 0.00017830946308095008 0.00043049271334894
0.10076183825731277 0.0002588767383713275 0.0003874257090501487
0.10063377767801285 0.0005089330370537937 0.000761661387514323
0.10042519122362137 0.0007416583248414099 0.0011099595576524734
0.1001431941986084 0.0009491277160122991 0.0014204593608155847
0.09979736804962158 0.001124275615438819 0.0016825866186991334
0.09939949959516525 0.001261137891560793 0.0018874156521633267
0.09896315634250641 0.0013550537405535579 0.002027970738708973
0.09850316494703293 0.0014028252335265279 0.0020994655787944794
-0.09850316494703293 0.0014028166187927127 0.0020994741935282946
-0.09896314144134521 0.0013550450094044209 0.002027979353442788
-0.09939949959516525 0.001261129160411656 0.0018874243833124638
-0.09979736059904099 0.001124266884289682 0.0016825953498482704
-0.1001431792974472 0.0009491186938248575 0.0014204679755493999
-0.10042518377304077 0.0007416493026539683 0.0011099678231403232
-0.10063377022743225 0.0005089237820357084 0.0007616697112098336
-0.10076182335615158 0.00025886733783409 0.00038743356708437204
0.10076183825731277 0.0003294864436611533 0.00032947779982350767
0.10063377767801285 0.0006477477727457881 0.0006477391580119729
0.10042519122362137 0.0009439510176889598 0.0009439423447474837
0.1001431941986084 0.0012080093147233129 0.0012080006999894977
0.09979736804962158 0.0014309301041066647 0.0014309214893728495
0.09939949959516525 0.0016051230486482382 0.001605114433914423
0.09896315634250641 0.0017246551578864455 0.0017246465431526303
0.09850316494703293 0.001785456552170217 0.0017854479374364018
-0.09850316494703293 0.0017854479374364018 0.001785456552170217
-0.09896314144134521 0.0017246464267373085 0.0017246552743017673
-0.09939949959516525 0.0016051143174991012 0.00160512316506356
-0.09979736059904099 0.0014309213729575276 0.0014309302205219865
-0.1001431792974472 0.0012080002343282104 0.0012080093147233129
-0.10042518377304077 0.0009439418208785355 0.0009439506684429944
-0.10063377022743225 0.000647738401312381 0.0006477474817074835
-0.10076182335615158 0.0003294768976047635 0.00032948574516922235
0.10076183825731277 0.0003874343528877944 0.0002588680654298514
0.10063377767801285 0.00076167011866346 0.0005089244223199785
0.10042519122362137 0.0011099681723862886 0.0007416497683152556
0.1001431941986084 0.0014204677427187562 0.0009491189266555011
0.09979736804962158 0.0016825952334329486 0.001124266884289682
0.09939949959516525 0.001887424266897142 0.0012611293932422996
0.09896315634250641 0.0020279791206121445 0.0013550451258197427
0.09850316494703293 0.0020994737278670073 0.001402816385962069
-0.09850316494703293 0.002099465113133192 0.0014028250006958842
-0.09896314144134521 0.0020279705058783293 0.0013550538569688797
-0.09939949959516525 0.001887415535748005 0.0012611381243914366
-0.09979736059904099 0.0016825865022838116 0.001124275615438819
-0.1001431792974472 0.0014204588951542974 0.0009491276578046381
-0.10042518377304077 0.0011099589755758643 0.0007416582084260881
-0.10063377022743225 0.000761660689022392 0.00050893280422315
-0.10076182335615158 0.00038742460310459137 0.0002588762145023793
0.10076183825731277 0.00043049349915236235 0.00017831000150181353
0.10063377767801285 0.0008463221602141857 0.00035055179614573717
0.10042519122362137 0.0012333299964666367 0.0005108557525090873
0.1001431941986084 0.0015783387934789062 0.0006537631270475686
0.09979736804962158 0.0018695993348956108 0.000774407060816884
0.09939949959516525 0.0020971926860511303 0.0008686796063557267
0.09896315634250641 0.0022533691953867674 0.000933369854465127
0.09850316494703293 0.0023328098468482494 0.0009662752854637802
-0.09850316494703293 0.0023328012321144342 0.0009662839001975954
-0.09896314144134521 0.002253360580652952 0.0009333784691989422
-0.09939949959516525 0.002097184071317315 0.0008686883375048637
-0.09979736059904099 0.0018695906037464738 0.0007744157919660211
-0.1001431792974472 0.0015783299459144473 0.0006537718581967056
-0.10042518377304077 0.0012333207996562123 0.0005108643090352416
-0.10063377022743225 0.000846312555950135 0.00035056029446423054
-0.10076182335615158 0.0004304836329538375 0.00017831833974923939
0.10076183825731277 0.0004570091550704092 9.089942614082247e-05
0.10063377767801285 0.0008984504966065288 0.00017870747251436114
0.10042519122362137 0.0013092958834022284 0.0002604298060759902
0.1001431941986084 0.0016755553660914302 0.0003332832711748779
0.09979736804962158 0.001984755741432309 0.00039478696999140084
0.09939949959516525 0.0022263675928115845 0.00044284676550887525
0.09896315634250641 0.002392163500189781 0.0004758255381602794
0.09850316494703293 0.002476497320458293 0.0004926006076857448
-0.09850316494703293 0.0024764887057244778 0.00049260922241956
-0.09896314144134521 0.002392154885455966 0.0004758342111017555
-0.09939949959516525 0.0022263589780777693 0.00044285543845035136
-0.09979736059904099 0.001984747126698494 0.00039479570114053786
-0.1001431792974472 0.0016755464021116495 0.0003332920023240149
-0.10042518377304077 0.001309286686591804 0.00026043850812129676
-0.10063377022743225 0.000898440892342478 0.00017871610180009156
-0.10076182335615158 0.00045699923066422343 9.090797539101914e-05
0.10076183825731277 0.0004659624246414751 -4.534152608925979e-09
0.10063377767801285 0.0009160521440207958 -4.623021965244334e-09
0.10042519122362137 0.0013349464861676097 -4.57611770698918e-09
0.1001431941986084 0.0017083813436329365 -4.620471116822955e-09
0.09979736804962158 0.0020236391574144363 -4.718715196361245e-09
0.09939949959516525 0.002269984455779195 -4.512390017197276e-09
0.09896315634250641 0.0024390285834670067 -4.6066768177865924e-09
0.09850316494703293 0.0025250145699828863 -4.548783127944489e-09
-0.09850316494703293 0.002525005955249071 4.062636893564786e-09
-0.09896314144134521 0.0024390199687331915 4.0449563698530255e-09
-0.09939949959516525 0.0022699758410453796 4.177390433568462e-09
-0.09979736059904099 0.002023630542680621 4.00584765358758e-09
-0.1001431792974472 0.0017083723796531558 4.134324438354042e-09
-0.10042518377304077 0.0013349371729418635 4.222224347927295e-09
-0.10063377022743225 0.0009160425397567451 4.136875286775421e-09
-0.10076182335615158 0.0004659524420276284 4.236939687984886e-09
0.10076183825731277 0.0004570091259665787 -9.090848470805213e-05
0.10063377767801285 0.0008984504966065288 -0.00017871671298053116
0.10042519122362137 0.0013092958834022284 -0.00026043891557492316
0.1001431941986084 0.0016755553660914302 -0.0003332924679853022
0.09979736804962158 0.0019847555086016655 -0.00039479637052863836
0.09939949959516525 0.0022263675928115845 -0.0004428557585924864
0.09896315634250641 0.002392163500189781 -0.0004758347640745342
0.09850316494703293 0.0024764970876276493 -0.0004926096880808473
-0.09850316494703293 0.002476488472893834 -0.0004926010733470321
-0.09896314144134521 0.002392154885455966 -0.00047582609113305807
-0.09939949959516525 0.0022263589780777693 -0.0004428470856510103
-0.09979736059904099 0.0019847468938678503 -0.00039478763937950134
-0.1001431792974472 0.0016755464021116495 -0.00033328370773233473
-0.10042518377304077 0.001309286686591804 -0.00026042998069897294
-0.10063377022743225 0.000898440892342478 -0.00017870779265649617
-0.10076182335615158 0.00045699914335273206 -9.089947707252577e-05
0.10076183825731277 0.00043049335363321006 -0.00017831905279308558
0.10063377767801285 0.0008463221602141857 -0.0003505609929561615
0.10042519122362137 0.0012333299964666367 -0.0005108648911118507
0.1001431941986084 0.0015783387934789062 -0.0006537723238579929
0.09979736804962158 0.0018695991020649672 -0.0007744163740426302
0.09939949959516525 0.0020971924532204866 -0.0008686885121278465
0.09896315634250641 0.0022533689625561237 -0.0009333789348602295
0.09850316494703293 0.0023328096140176058 -0.0009662843076512218
-0.09850316494703293 0.0023328009992837906 -0.0009662756929174066
-0.09896314144134521 0.0022533603478223085 -0.0009333703201264143
-0.09939949959516525 0.0020971838384866714 -0.0008686797809787095
-0.09979736059904099 0.0018695903709158301 -0.0007744076428934932
-0.1001431792974472 0.0015783299459144473 -0.000653763476293534
-0.10042518377304077 0.0012333207996562123 -0.0005108559271320701
-0.10063377022743225 0.000846312555950135 -0.00035055194166488945
-0.10076182335615158 0.0004304834583308548 -0.00017830981232691556
0.10076183825731277 0.00038743417826481164 -0.0002588770294096321
0.10063377767801285 0.0007616702350787818 -0.0005089336773380637
0.10042519122362137 0.0011099680559709668 -0.0007416587322950363
0.1001431941986084 0.0014204676263034344 -0.0009491281234659255
0.09979736804962158 0.0016825951170176268 -0.0011242760811001062
0.09939949959516525 0.0018874236848205328 -0.0012611380079761147
0.09896315634250641 0.002027978654950857 -0.0013550540897995234
0.09850316494703293 0.00209947326220572 -0.0014028252335265279
-0.09850316494703293 0.0020994646474719048 -0.0014028166187927127
-0.09896314144134521 0.002027970040217042 -0.0013550453586503863
-0.09939949959516525 0.0018874149536713958 -0.0012611292768269777
-0.09979736059904099 0.0016825863858684897 -0.0011242673499509692
-0.1001431792974472 0.0014204588951542974 -0.0009491193341091275
-0.10042518377304077 0.0011099589755758643 -0.0007416497101075947
-0.10063377022743225 0.0007616606308147311 -0.0005089244223199785
-0.10076182335615158 0.0003874243702739477 -0.0002588675997685641
0.10076183825731277 0.0003294862690381706 -0.0003294867346994579
0.10063377767801285 0.0006477479473687708 -0.0006477484130300581
0.10042519122362137 0.0009439508430659771 -0.0009439512505196035
0.1001431941986084 0.0012080089654773474 -0.0012080095475539565
0.09979736804962158 0.0014309301041066647 -0.0014309306861832738
0.09939949959516525 0.001605122466571629 -0.0016051229322329164
0.09896315634250641 0.0017246546922251582 -0.001724655507132411
0.09850316494703293 0.001785455970093608 -0.0017854564357548952
-0.09850316494703293 0.0017854473553597927 -0.00178544782102108
-0.09896314144134521 0.0017246459610760212 -0.001724646775983274
-0.09939949959516525 0.001605113735422492 -0.0016051142010837793
-0.09979736059904099 0.0014309213729575276 -0.0014309219550341368
-0.1001431792974472 0.0012080002343282104 -0.0012080008164048195
-0.10042518377304077 0.0009439417044632137 -0.0009439420537091792
-0.10063377022743225 0.000647738401312381 -0.0006477389833889902
-0.10076182335615158 0.00032947660656645894 -0.00032947713043540716
0.10076183825731277 0.0002588765637483448 -0.00038743458571843803
0.10063377767801285 0.0005089331534691155 -0.0007616706425324082
0.10042519122362137 0.000741658266633749 -0.0011099682888016105
0.1001431941986084 0.0009491274249739945 -0.0014204680919647217
0.09979736804962158 0.0011242752661928535 -0.001682595582678914
0.09939949959516525 0.0012611374258995056 -0.0018874239176511765
0.09896315634250641 0.0013550532748922706 -0.002027979353442788
0.09850316494703293 0.001402824535034597 -0.0020994737278670073
-0.09850316494703293 0.0014028159203007817 -0.002099465113133192
-0.09896314144134521 0.0013550445437431335 -0.002027970738708973
-0.09939949959516525 0.0012611286947503686 -0.0018874151865020394
-0.09979736059904099 0.0011242665350437164 -0.001682586851529777
-0.1001431792974472 0.0009491186938248575 -0.0014204593608155847
-0.10042518377304077 0.0007416492444463074 -0.0011099590919911861
-0.10063377022743225 0.0005089237820357084 -0.0007616611546836793
-0.10076182335615158 0.00025886710500344634 -0.000387424835935235
0.10076183825731277 0.0001783185580279678 -0.00043049376108683646
0.10063377767801285 0.00035056049819104373 -0.0008463225676678121
0.10042519122362137 0.0005108643672429025 -0.0012333302292972803
0.1001431941986084 0.000653771567158401 -0.0015783390263095498
0.09979736804962158 0.0007744155591353774 -0.0018695993348956108
0.09939949959516525 0.0008686878136359155 -0.0020971924532204866
0.09896315634250641 0.0009333781199529767 -0.002253369428217411
0.09850316494703293 0.0009662836091592908 -0.0023328096140176058
-0.09850316494703293 0.0009662749944254756 -0.0023328009992837906
-0.09896314144134521 0.0009333695052191615 -0.002253360813483596
-0.09939949959516525 0.0008686790824867785 -0.0020971838384866714
-0.09979736059904099 0.0007744068279862404 -0.0018695906037464738
-0.1001431792974472 0.000653762836009264 -0.0015783302951604128
-0.10042518377304077 0.0005108554614707828 -0.0012333209160715342
-0.10063377022743225 0.00035055127227678895 -0.0008463129051961005
-0.10076182335615158 0.00017830925935413688 -0.0004304838948883116
0.10076183825731277 9.090801904676482e-05 -0.0004570094170048833
0.10063377767801285 0.0001787161745596677 -0.0008984508458524942
0.10042519122362137 0.0002604384208098054 -0.001309296116232872
0.1001431941986084 0.0003332917403895408 -0.0016755552496761084
0.09979736804962158 0.00039479549741372466 -0.001984755741432309
0.09939949959516525 0.00044285511830821633 -0.002226367359980941
0.09896315634250641 0.0004758338909596205 -0.002392163500189781
0.09850316494703293 0.0004926089895889163 -0.0024764970876276493
-0.09850316494703293 0.0004926003748551011 -0.002476488472893834
-0.09896314144134521 0.00047582521801814437 -0.002392154885455966
-0.09939949959516525 0.0004428464453667402 -0.0022263587452471256
-0.09979736059904099 0.00039478676626458764 -0.001984747126698494
-0.1001431792974472 0.00033328300924040377 -0.0016755465185269713
-0.10042518377304077 0.00026042957324534655 -0.001309286686591804
-0.10063377022743225 0.00017870716692414135 -0.0008984411251731217
-0.10076182335615158 9.08989313757047e-05 -0.00045699949259869754
0.10076183825731277 4.087823857190642e-09 -0.00046596265747211874
0.10063377767801285 4.091672778372413e-09 -0.0009160524350591004
0.10042519122362137 4.139235176836564e-09 -0.0013349466025829315
0.1001431941986084 3.994654829142519e-09 -0.001708380994386971
0.09979736804962158 3.94175181384071e-09 -0.0020236391574144363
0.09939949959516525 3.9999337175800065e-09 -0.002269984222948551
0.09896315634250641 3.791926772578336e-09 -0.0024390285834670067
0.09850316494703293 3.998540609728707e-09 -0.0025250143371522427
-0.09850316494703293 -4.612879855869778e-09 -0.0025250057224184275
-0.09896314144134521 -4.859706859150492e-09 -0.0024390199687331915
-0.09939949959516525 -4.689846733185732e-09 -0.002269975608214736
-0.09979736059904099 -4.7828110361081144e-09 -0.002023630542680621
-0.1001431792974472 -4.7601407260344786e-09 -0.001708372263237834
-0.10042518377304077 -4.602426884048327e-09 -0.0013349374057725072
-0.10063377022743225 -4.743798243111996e-09 -0.0009160426561720669
-0.10076182335615158 -4.777735984617948e-09 -0.00046595276216976345
0.10076183825731277 -9.089981904253364e-05 -0.0004570093587972224
0.10063377767801285 -0.00017870798183139414 -0.0008984507294371724
0.10042519122362137 -0.0002604301553219557 -0.001309296116232872
0.1001431941986084 -0.0003332837950438261 -0.0016755550168454647
0.09979736804962158 -0.00039478763937950134 -0.0019847555086016655
0.09939949959516525 -0.00044284711475484073 -0.002226367127150297
0.09896315634250641 -0.0004758262075483799 -0.0023921632673591375
0.09850316494703293 -0.0004926010151393712 -0.0024764968547970057
-0.09850316494703293 -0.0004926096298731863 -0.0024764882400631905
-0.09896314144134521 -0.000475834880489856 -0.0023921546526253223
-0.09939949959516525 -0.00044285578769631684 -0.002226358512416482
-0.09979736059904099 -0.00039479637052863836 -0.0019847468938678503
-0.1001431792974472 -0.0003332925261929631 -0.0016755462856963277
-0.10042518377304077 -0.00026043879915960133 -0.001309286686591804
-0.10063377022743225 -0.00017871664022095501 -0.0008984410669654608
-0.10076182335615158 -9.09084701561369e-05 -0.00045699949259869754
-0.10080500692129135 -4.690350330349702e-09 4.271352604945378e-09
0.10076183825731277 -0.000178310350747779 -0.0004304936737753451
0.10063377767801285 -0.000350552232703194 -0.0008463222766295075
0.10042519122362137 -0.0005108561017550528 -0.0012333302292972803
0.1001431941986084 -0.0006537634180858731 -0.0015783385606482625
0.09979736804962158 -0.0007744075846858323 -0.0018695989856496453
0.09939949959516525 -0.0008686796645633876 -0.002097192220389843
0.09896315634250641 -0.0009333703783340752 -0.00225336872972548
0.09850316494703293 -0.0009662753436714411 -0.0023328091483563185
-0.09850316494703293 -0.0009662839584052563 -0.0023328005336225033
-0.09896314144134521 -0.0009333789930678904 -0.002253360114991665
-0.09939949959516525 -0.0008686883957125247 -0.002097183605656028
-0.09979736059904099 -0.0007744163158349693 -0.0018695902545005083
-0.1001431792974472 -0.0006537721492350101 -0.0015783298294991255
-0.10042518377304077 -0.0005108646582812071 -0.0012333209160715342
-0.10063377022743225 -0.0003505607310216874 -0.0008463126723654568
-0.10076182335615158 -0.00017831877630669624 -0.0004304838366806507
0.10076183825731277 -0.000258868356468156 -0.0003874345275107771
0.10063377767801285 -0.000508924771565944 -0.0007616703514941037
0.10042519122362137 -0.0007416500011458993 -0.0011099682888016105
0.1001431941986084 -0.0009491191594861448 -0.0014204675098881125
0.09979736804962158 -0.0011242671171203256 -0.0016825947677716613
0.09939949959516525 -0.001261129160411656 -0.0018874232191592455
0.09896315634250641 -0.0013550452422350645 -0.002027978654950857
0.09850316494703293 -0.0014028161531314254 -0.0020994730293750763
-0.09850316494703293 -0.0014028247678652406 -0.002099464414641261
-0.09896314144134521 -0.0013550539733842015 -0.002027970040217042
-0.09939949959516525 -0.001261137891560793 -0.0018874144880101085
-0.09979736059904099 -0.0011242758482694626 -0.0016825860366225243
-0.1001431792974472 -0.0009491278906352818 -0.0014204587787389755
-0.10042518377304077 -0.0007416583248414099 -0.0011099589755758643
-0.10063377022743225 -0.0005089332116767764 -0.0007616608054377139
-0.10076182335615158 -0.00025887659285217524 -0.00038742474862374365
0.10076183825731277 -0.0003294780617579818 -0.00032948661828413606
0.10063377767801285 -0.0006477393908426166 -0.0006477480055764318
0.10042519122362137 -0.0009439424611628056 -0.0009439511341042817
0.1001431941986084 -0.0012080005835741758 -0.0012080088490620255
0.09979736804962158 -0.0014309216057881713 -0.0014309297548606992
0.09939949959516525 -0.0016051139682531357 -0.0016051222337409854
0.09896315634250641 -0.0017246465431526303 -0.0017246545758098364
0.09850316494703293 -0.0017854473553597927 -0.0017854557372629642
-0.09850316494703293 -0.001785455970093608 -0.001785447122529149
-0.09896314144134521 -0.0017246552743017673 -0.0017246458446606994
-0.09939949959516525 -0.0016051226994022727 -0.0016051135025918484
-0.09979736059904099 -0.0014309303369373083 -0.0014309210237115622
-0.1001431792974472 -0.0012080093147233129 -0.0012080001179128885
-0.10042518377304077 -0.0009439507266506553 -0.0009439419372938573
-0.10063377022743225 -0.0006477477727457881 -0.0006477385759353638
-0.10076182335615158 -0.00032948609441518784 -0.00032947701402008533
0.10076183825731277 -0.0003874259418807924 -0.00025887691299431026
0.10063377767801285 -0.0007616617367602885 -0.0005089332698844373
0.10042519122362137 -0.0011099595576524734 -0.0007416585576720536
0.1001431941986084 -0.001420459127984941 -0.0009491274831816554
0.09979736804962158 -0.0016825863858684897 -0.0011242751497775316
0.09939949959516525 -0.0018874149536713958 -0.0012611373094841838
0.09896315634250641 -0.0020279702730476856 -0.0013550531584769487
0.09850316494703293 -0.002099464414641261 -0.0014028241857886314
-0.09850316494703293 -0.0020994730293750763 -0.0014028155710548162
-0.09896314144134521 -0.002027978887781501 -0.0013550444273278117
-0.09939949959516525 -0.0018874236848205328 -0.0012611285783350468
-0.09979736059904099 -0.0016825951170176268 -0.0011242664186283946
-0.1001431792974472 -0.001420467859134078 -0.0009491187520325184
-0.10042518377304077 -0.0011099678231403232 -0.0007416494772769511
-0.10063377022743225 -0.0007616698858328164 -0.0005089239566586912
-0.10076182335615158 -0.00038743382901884615 -0.0002588674833532423
0.10080502182245255 2.8003570573531533e-09 -5.08887021410942e-09
0.10076183825731277 -0.0004304850590415299 -0.00017831892182584852
0.10063377767801285 -0.0008463134872727096 -0.000350560643710196
0.10042519122362137 -0.0012333213817328215 -0.000510864716488868
0.1001431941986084 -0.0015783299459144473 -0.0006537716835737228
0.09979736804962158 -0.0018695901380851865 -0.0007744155009277165
0.09939949959516525 -0.002097183605656028 -0.0008686877554282546
0.09896315634250641 -0.002253360114991665 -0.0009333781199529767
0.09850316494703293 -0.0023328003007918596 -0.0009662835509516299
-0.09850316494703293 -0.002332808915525675 -0.0009662749362178147
-0.09896314144134521 -0.00225336872972548 -0.0009333695052191615
-0.09939949959516525 -0.002097192220389843 -0.0008686790242791176
-0.09979736059904099 -0.0018695988692343235 -0.0007744067697785795
-0.1001431792974472 -0.0015783386770635843 -0.0006537629524245858
-0.10042518377304077 -0.0012333295308053493 -0.0005108556360937655
-0.10063377022743225 -0.0008463215781375766 -0.0003505515633150935
-0.10076182335615158 -0.00043049282976426184 -0.00017830965225584805
0.10076183825731277 -0.0004570007149595767 -9.090836101677269e-05
0.10063377767801285 -0.0008984418818727136 -0.0001787164219422266
0.10042519122362137 -0.0013092872686684132 -0.0002604387700557709
0.1001431941986084 -0.0016755462856963277 -0.00033329203142784536
0.09979736804962158 -0.0019847466610372066 -0.00039479558472521603
0.09939949959516525 -0.002226358512416482 -0.0004428551474120468
0.09896315634250641 -0.0023921544197946787 -0.0004758340073749423
0.09850316494703293 -0.002476488007232547 -0.0004926091060042381
-0.09850316494703293 -0.002476496621966362 -0.0004926004912704229
-0.09896314144134521 -0.002392163034528494 -0.0004758253344334662
-0.09939949959516525 -0.002226367127150297 -0.0004428464744705707
-0.09979736059904099 -0.001984755275771022 -0.000394786853576079
-0.1001431792974472 -0.0016755550168454647 -0.00033328330027870834
-0.10042518377304077 -0.0013092953013256192 -0.00026042983517982066
-0.10063377022743225 -0.0008984499727375805 -0.00017870747251436114
-0.10076182335615158 -0.0004570084856823087 -9.089932427741587e-05
0.10076183825731277 -0.00046595398453064263 -4.449132617878604e-09
0.10063377767801285 -0.0009160434128716588 -4.396301100939581e-09
0.10042519122362137 -0.0013349377550184727 -4.538330600212248e-09
0.1001431941986084 -0.001708372263237834 -4.3559635898304805e-09
0.09979736804962158 -0.002023630077019334 -4.114126817000852e-09
0.09939949959516525 -0.0022699753753840923 -4.1345220580524256e-09
0.09896315634250641 -0.002439019503071904 -4.115448870578575e-09
0.09850316494703293 -0.0025250050239264965 -4.246488938264292e-09
-0.09850316494703293 -0.0025250136386603117 4.364931083244983e-09
-0.09896314144134521 -0.0024390281178057194 4.536184761150253e-09
-0.09939949959516525 -0.0022699839901179075 4.555258392713313e-09
-0.09979736059904099 -0.002023638691753149 4.610436032947973e-09
-0.1001431792974472 -0.001708380994386971 4.398831521257307e-09
-0.10042518377304077 -0.0013349457876756787 4.241117679271156e-09
-0.10063377022743225 -0.000916051387321204 4.401382369678686e-09
-0.10076182335615158 -0.00046596163883805275 4.378640117153054e-09
0.10076183825731277 -0.00045700068585574627 9.089946252061054e-05
0.10063377767801285 -0.0008984416490420699 0.00017870763258542866
0.10042519122362137 -0.0013092872686684132 0.00026042971876449883
0.1001431941986084 -0.0016755462856963277 0.00033328335848636925
0.09979736804962158 -0.0019847461953759193 0.00039478729013353586
0.09939949959516525 -0.0022263580467551947 0.0004428468819241971
0.09896315634250641 -0.002392154186964035 0.0004758257418870926
0.09850316494703293 -0.0024764875415712595 0.0004926005494780838
-0.09850316494703293 -0.0024764961563050747 0.000492609164211899
-0.09896314144134521 -0.0023921628016978502 0.0004758344148285687
-0.09939949959516525 -0.00222636666148901 0.0004428555548656732
-0.09979736059904099 -0.0019847548101097345 0.0003947960212826729
-0.1001431792974472 -0.0016755550168454647 0.00033329208963550627
-0.10042518377304077 -0.0013092951849102974 0.0002604383626021445
-0.10063377022743225 -0.000898449681699276 0.00017871624731924385
-0.10076182335615158 -0.00045700842747464776 9.090807725442573e-05
0.10076183825731277 -0.0004304849717300385 0.00017830997239798307
0.10063377767801285 -0.000846313196234405 0.00035055179614573717
0.10042519122362137 -0.0012333212653174996 0.0005108555778861046
0.1001431941986084 -0.0015783297130838037 0.0006537629524245858
0.09979736804962158 -0.0018695896724238992 0.000774407060816884
0.09939949959516525 -0.0020971831399947405 0.0008686793153174222
0.09896315634250641 -0.002253359416499734 0.0009333696798421443
0.09850316494703293 -0.002332800067961216 0.0009662748198024929
-0.09850316494703293 -0.002332808682695031 0.000966283434536308
-0.09896314144134521 -0.002253368031233549 0.0009333782945759594
-0.09939949959516525 -0.0020971917547285557 0.0008686880464665592
-0.09979736059904099 -0.0018695984035730362 0.0007744157919660211
-0.1001431792974472 -0.0015783384442329407 0.0006537716835737228
-0.10042518377304077 -0.0012333292979747057 0.000510864017996937
-0.10063377022743225 -0.0008463212288916111 0.00035056029446423054
-0.10076182335615158 -0.00043049277155660093 0.0001783183979569003
0.10076183825731277 -0.00038742582546547055 0.00025886797811836004
0.10063377767801285 -0.0007616612710990012 0.0005089241894893348
0.10042519122362137 -0.0011099593248218298 0.0007416493608616292
0.1001431941986084 -0.0014204586623236537 0.0009491186356171966
0.09979736804962158 -0.001682585570961237 0.0011242666514590383
0.09939949959516525 -0.0018874142551794648 0.0012611286947503686
0.09896315634250641 -0.002027969341725111 0.0013550445437431335
0.09850316494703293 -0.002099463948979974 0.001402815687470138
-0.09850316494703293 -0.002099472563713789 0.0014028243022039533
-0.09896314144134521 -0.002027977956458926 0.0013550532748922706
-0.09939949959516525 -0.0018874229863286018 0.0012611374258995056
-0.09979736059904099 -0.001682594302110374 0.0011242753826081753
-0.1001431792974472 -0.0014204673934727907 0.0009491273667663336
-0.10042518377304077 -0.0011099674738943577 0.0007416577427648008
-0.10063377022743225 -0.0007616693619638681 0.0005089325713925064
-0.10076182335615158 -0.00038743371260352433 0.0002588762145023793
0.10076183825731277 -0.00032947794534265995 0.0003294776543043554
0.10063377767801285 -0.0006477389833889902 0.0006477388669736683
0.10042519122362137 -0.0009439421119168401 0.0009439418790861964
0.1001431941986084 -0.0012080001179128885 0.0012080002343282104
0.09979736804962158 -0.0014309206744655967 0.0014309210237115622
0.09939949959516525 -0.001605113036930561 0.0016051135025918484
0.09896315634250641 -0.001724645378999412 0.0017246456118300557
0.09850316494703293 -0.00178544654045254 0.0017854468896985054
-0.09850316494703293 -0.0017854551551863551 0.0017854555044323206
-0.09896314144134521 -0.001724654110148549 0.0017246543429791927
-0.09939949959516525 -0.001605121768079698 0.0016051222337409854
-0.09979736059904099 -0.0014309294056147337 0.0014309297548606992
-0.1001431792974472 -0.0012080088490620255 0.0012080089654773474
-0.10042518377304077 -0.000943950260989368 0.0009439500281587243
-0.10063377022743225 -0.000647747132461518 0.0006477470742538571
-0.10076182335615158 -0.000329485977999866 0.00032948568696156144
0.10076183825731277 -0.00025886824005283415 0.000387425534427166
0.10063377767801285 -0.0005089243641123176 0.0007616610382683575
0.10042519122362137 -0.0007416495936922729 0.0011099590919911861
0.1001431941986084 -0.0009491185192018747 0.0014204586623236537
0.09979736804962158 -0.0011242660693824291 0.0016825856873765588
0.09939949959516525 -0.0012611282290890813 0.0018874143715947866
0.09896315634250641 -0.0013550440780818462 0.0020279691088944674
0.09850316494703293 -0.0014028153382241726 0.002099463948979974
-0.09850316494703293 -0.0014028239529579878 0.002099472563713789
-0.09896314144134521 -0.0013550528092309833 0.0020279777236282825
-0.09939949959516525 -0.0012611369602382183 0.0018874231027439237
-0.09979736059904099 -0.0011242748005315661 0.0016825944185256958
-0.1001431792974472 -0.0009491272503510118 0.0014204673934727907
-0.10042518377304077 -0.0007416578591801226 0.0011099671246483922
-0.10063377022743225 -0.0005089326296001673 0.0007616691291332245
-0.10076182335615158 -0.00025887644733302295 0.0003874333924613893
0.10076183825731277 -0.00017831020522862673 0.00043048468069173396
0.10063377767801285 -0.0003505518543533981 0.0008463129051961005
0.10042519122362137 -0.0005108558107167482 0.0012333209160715342
0.1001431941986084 -0.0006537627778016031 0.00157832948025316
0.09979736804962158 -0.000774406420532614 0.0018695893231779337
0.09939949959516525 -0.0008686786168254912 0.002097182674333453
0.09896315634250641 -0.000933369155973196 0.0022533591836690903
0.09850316494703293 -0.0009662745869718492 0.0023327996022999287
-0.09850316494703293 -0.0009662832017056644 0.002332808217033744
-0.09896314144134521 -0.0009333777707070112 0.0022533677984029055
-0.09939949959516525 -0.0008686873479746282 0.0020971912890672684
-0.09979736059904099 -0.000774415151681751 0.0018695980543270707
-0.1001431792974472 -0.0006537715089507401 0.001578338211402297
-0.10042518377304077 -0.0005108642508275807 0.0012333289487287402
-0.10063377022743225 -0.0003505602653604001 0.0008463208796456456
-0.10076182335615158 -0.00017831858713179827 0.00043049242231063545
0.10076183825731277 -9.089966624742374e-05 0.0004570003366097808
0.10063377767801285 -0.00017870769079308957 0.0008984411833807826
0.10042519122362137 -0.0002604298642836511 0.0013092868030071259
0.1001431941986084 -0.00033328315475955606 0.0016755459364503622
0.09979736804962158 -0.0003947866498492658 0.001984745729714632
0.09939949959516525 -0.0004428461252246052 0.0022263575810939074
0.09896315634250641 -0.00047582521801814437 0.002392153488472104
0.09850316494703293 -0.0004926003166474402 0.002476487075909972
-0.09850316494703293 -0.0004926089313812554 0.0024764956906437874
-0.09896314144134521 -0.0004758338909596205 0.0023921621032059193
-0.09939949959516525 -0.0004428547981660813 0.0022263661958277225
-0.09979736059904099 -0.00039479538099840283 0.0019847543444484472
-0.1001431792974472 -0.0003332918859086931 0.0016755546675994992
-0.10042518377304077 -0.00026043850812129676 0.00130929471924901
-0.10063377022743225 -0.0001787162182154134 0.0008984490414150059
-0.10076182335615158 -9.090825915336609e-05 0.00045700802002102137
0.10076183825731277 4.238970952030741e-09 0.0004659535188693553
0.10063377767801285 4.299499867244094e-09 0.0009160426561720669
0.1001431941986084 4.56145654581519e-09 0.0017083717975765467
0.09850316494703293 4.489768556936724e-09 0.0025250043254345655
-0.10076182335615158 -4.551015564402405e-09 0.0004659612022805959
