-0.015636105090379715 0.03777019679546356 0.028950946405529976
-0.007832619361579418 0.011720268055796623 0.004327601287513971
-0.014813746325671673 0.022171154618263245 0.008425630629062653
-0.01816956140100956 0.027197446674108505 0.012529522180557251
-0.020737698301672935 0.031044695526361465 0.016634387895464897
-0.021560057997703552 0.032279226928949356 0.02074023336172104
-0.022176330909132957 0.03320463001728058 0.024847054854035378
-0.022700458765029907 0.03399329632520676 0.028953878208994865
-0.009968768805265427 0.009967555291950703 0.00432857871055603
-0.018854200839996338 0.01885596103966236 0.008428561501204967
-0.023125508800148964 0.02313024178147316 0.012534407898783684
-0.026394134387373924 0.026402829214930534 0.016638297587633133
-0.02744041383266449 0.027453072369098663 0.020744141191244125
-0.028225120157003403 0.0282407496124506 0.02485194243490696
-0.028891922906041145 0.028911519795656204 0.028958763927221298
-0.011721481569111347 0.007831405848264694 0.0043305326253175735
-0.022170385345816612 0.014815505594015121 0.008432471193373203
-0.02719172276556492 0.018175285309553146 0.01253831572830677
-0.031035996973514557 0.020745404064655304 0.016643183305859566
-0.032267555594444275 0.021572714671492577 0.020749026909470558
-0.033188991248607635 0.022191960364580154 0.024856828153133392
-0.03397370129823685 0.022720051929354668 0.02896364964544773
-0.013024373911321163 0.005394055973738432 0.004332487005740404
-0.0246334969997406 0.0102053452283144 0.00843637902289629
-0.03021463192999363 0.012520828284323215 0.012542224489152431
-0.034484948962926865 0.01429434772580862 0.01664806716144085
-0.03585323318839073 0.014863063581287861 0.020755866542458534
-0.03687672317028046 0.015291085466742516 0.024862688034772873
-0.03774961456656456 0.015656691044569016 0.028970489278435707
-0.013826915994286537 0.0027486386243253946 0.004336395300924778
-0.026151390746235847 0.005203823558986187 0.008441263809800148
-0.03207632899284363 0.006385840009897947 0.012548087164759636
-0.0366102010011673 0.007291424088180065 0.016654906794428825
-0.03806072473526001 0.007583707571029663 0.020761728286743164
-0.039148613810539246 0.0078026726841926575 0.024869529530405998
-0.04007500410079956 0.007990924641489983 0.028976351022720337
-0.014097403734922409 -1.8028162003247417e-06 0.0043383496813476086
-0.026662638410925865 2.1603555069305003e-06 0.00844517257064581
-0.03270449861884117 5.132734258950222e-06 0.01255394984036684
-0.037326548248529434 9.095906534639653e-06 0.016660770401358604
-0.038806792348623276 1.2068284377164673e-05 0.020767591893672943
-0.03991548717021942 1.5040664948173799e-05 0.024876369163393974
-0.040860701352357864 1.900383722386323e-05 0.028983190655708313
-0.013826915994286537 -0.0027512533124536276 0.0043403045274317265
-0.026151390746235847 -0.005199503153562546 0.008449082262814045
-0.03207632899284363 -0.006375574041157961 0.012558835558593273
-0.0366102010011673 -0.007273233029991388 0.016666632145643234
-0.03806072473526001 -0.007558580953627825 0.02077443152666092
-0.039148613810539246 -0.007771601900458336 0.02488320879638195
-0.04007500410079956 -0.007951926440000534 0.028991010040044785
-0.013024373911321163 -0.005396670661866665 0.004343235865235329
-0.0246334969997406 -0.010201025754213333 0.00845494493842125
-0.03021463192999363 -0.012509574182331562 0.012564697302877903
-0.034484948962926865 -0.01427516806870699 0.01667347177863121
-0.03585323318839073 -0.014837938360869884 0.020780296996235847
-0.03687672317028046 -0.015260014683008194 0.024890050292015076
-0.03774961456656456 -0.015616700984537601 0.028996871784329414
-0.011721481569111347 -0.007834021933376789 0.004345189779996872
-0.022170385345816612 -0.014811186119914055 0.00845787487924099
-0.02719172276556492 -0.018164029344916344 0.012568606063723564
-0.031035996973514557 -0.020728200674057007 0.016678359359502792
-0.032267555594444275 -0.021547585725784302 0.020786156877875328
-0.033188991248607635 -0.022160887718200684 0.024895910173654556
-0.03397370129823685 -0.02268105559051037 0.029002731665968895
-0.009968768805265427 -0.009970171377062798 0.004347143694758415
-0.018854200839996338 -0.018850648775696754 0.008461784571409225
-0.023125508800148964 -0.0231199748814106 0.012573491781949997
-0.026394134387373924 -0.026384638622403145 0.016683243215084076
-0.02744041383266449 -0.02742893248796463 0.020792020484805107
-0.028225120157003403 -0.02820967696607113 0.02490079775452614
-0.028891922906041145 -0.028872517868876457 0.029008598998188972
-0.007832619361579418 -0.011722885072231293 0.004348121117800474
-0.014813746325671673 -0.02216683328151703 0.008464714512228966
-0.01816956140100956 -0.027187177911400795 0.012577401474118233
-0.020737698301672935 -0.031026504933834076 0.01668715290725231
-0.021560057997703552 -0.03225409612059593 0.020795930176973343
-0.022176330909132957 -0.03317355364561081 0.024904707446694374
-0.022700458765029907 -0.03395429626107216 0.029013480991125107
-0.005395268555730581 -0.013025777414441109 0.004349098075181246
-0.010204577818512917 -0.02463192492723465 0.008466669358313084
-0.012515107169747353 -0.030209099873900414 0.012579355388879776
-0.014284663833677769 -0.03447644039988518 0.016691060736775398
-0.014850405976176262 -0.03584076464176178 0.020798860117793083
-0.015275456011295319 -0.03686128556728363 0.02490861341357231
-0.015636105090379715 -0.03773020580410957 0.029016412794589996
-0.0027508423663675785 -0.013828319497406483 0.004350075498223305
-0.0052010733634233475 -0.026147838681936264 0.00846764724701643
-0.006380117032676935 -0.03206980973482132 0.012581308372318745
-0.007281737867742777 -0.03659971430897713 0.01669301465153694
-0.007571049965918064 -0.03804924711585045 0.020800814032554626
-0.007788033690303564 -0.03913317248225212 0.024910569190979004
-0.007972321473062038 -0.04005461186170578 0.02901836857199669
-4.00893526375512e-07 -0.026661068201065063 0.00846764724701643
-4.00893526375512e-07 -0.032697971910238266 0.012581308372318745
-4.00893526375512e-07 -0.037317048758268356 0.01669301465153694
-4.00893526375512e-07 -0.038795314729213715 0.020801791921257973
-4.00893526375512e-07 -0.0399000458419323 0.0249115452170372
-4.00893526375512e-07 -0.040840309113264084 0.02901836857199669
0.005201261956244707 -0.026147838681936264 0.00846764724701643
0.006379314698278904 -0.03206980973482132 0.012581308372318745
0.007281927391886711 -0.03659971430897713 0.01669301465153694
0.007571239490061998 -0.03804924711585045 0.020800814032554626
0.00778723182156682 -0.03913317248225212 0.024910569190979004
0.007971519604325294 -0.04005559906363487 0.02901836857199669
0.005394466686993837 -0.013025777414441109 0.004349098075181246
0.010203775949776173 -0.02463192492723465 0.008466669358313084
0.01251529622823 -0.030209099873900414 0.012579355388879776
0.014283861964941025 -0.03447644039988518 0.016691060736775398
0.014850594103336334 -0.03584076464176178 0.020798860117793083
0.015275644138455391 -0.03686128556728363 0.02490861341357231
0.015636295080184937 -0.03773020580410957 0.029016412794589996
0.007831817492842674 -0.011722885072231293 0.004348121117800474
0.014812945388257504 -0.02216683328151703 0.008464714512228966
0.01816975139081478 -0.027187177911400795 0.012577401474118233
0.020737886428833008 -0.031026504933834076 0.01668715290725231
0.021560244262218475 -0.03225409612059593 0.020795930176973343
0.02217552810907364 -0.03317355364561081 0.024904707446694374
0.02270064689218998 -0.03395429626107216 0.029013480991125107
0.009967966936528683 -0.009970171377062798 0.004347143694758415
0.01885339803993702 -0.018850648775696754 0.008461784571409225
0.023125698789954185 -0.0231199748814106 0.012573491781949997
0.026394322514533997 -0.026384638622403145 0.016683243215084076
0.027441592887043953 -0.02742893248796463 0.020792020484805107
0.028225310146808624 -0.02820967696607113 0.02490079775452614
0.028892114758491516 -0.028872517868876457 0.029008598998188972
0.011721671558916569 -0.007834021933376789 0.004345189779996872
0.022169584408402443 -0.014811186119914055 0.00845787487924099
0.02719191275537014 -0.018164029344916344 0.012568606063723564
0.031035196036100388 -0.020728200674057007 0.016678359359502792
0.03226675093173981 -0.021547585725784302 0.020786156877875328
0.03318918123841286 -0.022160887718200684 0.024895910173654556
0.03397389128804207 -0.02268105559051037 0.029002731665968895
0.013024563901126385 -0.005396670661866665 0.004343235865235329
0.024633683264255524 -0.010201025754213333 0.00845494493842125
0.03021482191979885 -0.012509574182331562 0.012564697302877903
0.034485138952732086 -0.01427516806870699 0.01667347177863121
0.03585243225097656 -0.014837938360869884 0.020780296996235847
0.03687691316008568 -0.015260014683008194 0.024890050292015076
0.03774880990386009 -0.015616700984537601 0.028996871784329414
0.013827105052769184 -0.0027512533124536276 0.0043403045274317265
0.026150589808821678 -0.005199503153562546 0.008449082262814045
0.03207552805542946 -0.006375574041157961 0.012558835558593273
0.03660939633846283 -0.007273233029991388 0.016666632145643234
0.038060907274484634 -0.007558580953627825 0.02077443152666092
0.039147812873125076 -0.007771601900458336 0.02488320879638195
0.04007420316338539 -0.007951926440000534 0.028991010040044785
0.014097590930759907 -1.8028162003247417e-06 0.0043383496813476086
0.026662830263376236 2.1603555069305003e-06 0.00844517257064581
0.032703693956136703 5.132734258950222e-06 0.01255394984036684
0.03732673451304436 9.095906534639653e-06 0.016660770401358604
0.0388069748878479 1.2068284377164673e-05 0.020767591893672943
0.039915673434734344 1.5040664948173799e-05 0.024876369163393974
0.0408598966896534 1.900383722386323e-05 0.028983190655708313
0.013827105052769184 0.0027486386243253946 0.004336395300924778
0.026150589808821678 0.005203823558986187 0.008441263809800148
0.03207552805542946 0.006385840009897947 0.012548087164759636
0.03660939633846283 0.007291424088180065 0.016654906794428825
0.038060907274484634 0.007583707571029663 0.020761728286743164
0.039147812873125076 0.0078026726841926575 0.024869529530405998
0.04007420316338539 0.007990924641489983 0.028976351022720337
0.013024563901126385 0.005394055973738432 0.004332487005740404
0.024633683264255524 0.0102053452283144 0.00843637902289629
0.03021482191979885 0.012520828284323215 0.012542224489152431
0.034485138952732086 0.01429434772580862 0.01664806716144085
0.03585243225097656 0.014863063581287861 0.020755866542458534
0.03687691316008568 0.015291085466742516 0.024862688034772873
0.03774880990386009 0.015656691044569016 0.028970489278435707
0.011721671558916569 0.007830414921045303 0.0043305326253175735
0.022169584408402443 0.01481451466679573 0.008432471193373203
0.02719191275537014 0.018175285309553146 0.01253831572830677
0.031035196036100388 0.020745404064655304 0.016643183305859566
0.03226675093173981 0.021572714671492577 0.020749026909470558
0.03318918123841286 0.022191960364580154 0.024856828153133392
0.03397389128804207 0.022720051929354668 0.02896364964544773
0.009967966936528683 0.009967555291950703 0.00432857871055603
0.01885339803993702 0.01885596103966236 0.008428561501204967
0.023125698789954185 0.02313024178147316 0.012534407898783684
0.026394322514533997 0.026402829214930534 0.016638297587633133
0.027441592887043953 0.027453072369098663 0.020744141191244125
0.028225310146808624 0.0282407496124506 0.02485194243490696
0.028892114758491516 0.028911519795656204 0.028958763927221298
0.007831817492842674 0.011720268055796623 0.004327601287513971
0.014812945388257504 0.022171154618263245 0.008425630629062653
0.01816975139081478 0.027197446674108505 0.012529522180557251
0.020737886428833008 0.031044695526361465 0.016634387895464897
0.021560244262218475 0.032279226928949356 0.02074023336172104
0.02217552810907364 0.03320463001728058 0.024847054854035378
0.02270064689218998 0.03399329632520676 0.028953878208994865
0.005394466686993837 0.01302316039800644 0.004326624795794487
0.010203775949776173 0.024636248126626015 0.00842367671430111
0.01251529622823 0.030219363048672676 0.012527566403150558
0.014283861964941025 0.03449364751577377 0.01663047820329666
0.014850594103336334 0.03586490452289581 0.02073730155825615
0.015275644138455391 0.036892350763082504 0.024844124913215637
0.015636295080184937 0.03777019679546356 0.028950946405529976
0.002750040264800191 0.013825703412294388 0.004325647372752428
0.005201261956244707 0.02615215815603733 0.008422698825597763
0.006379314698278904 0.03208007290959358 0.012525612488389015
0.007281927391886711 0.036616913974285126 0.016628526151180267
0.007571239490061998 0.038073379546403885 0.020735347643494606
0.00778723182156682 0.03916424512863159 0.024842169135808945
0.007971519604325294 0.04009360447525978 0.028948016464710236
-0.010343044996261597 0.0020534726791083813 0.0007298572454601526
-0.009743204340338707 0.004031301010400057 0.000727902865037322
-0.008779969066381454 0.0036301149521023035 -0.0020891251042485237
-0.009320699609816074 0.001848034095019102 -0.002087170723825693
-0.010545577853918076 -4.787267698702635e-06 0.0007318116840906441
0.005858481861650944 0.008764135651290417 0.0007230174378491938
0.00403570057824254 0.009738998487591743 0.0007220404222607613
0.00745644373819232 -0.007461618632078171 0.0007386513752862811
0.0087685352191329 -0.005863656755536795 0.0007366971112787724
-0.008768340572714806 -0.005863656755536795 0.0007366971112787724
-0.007457218132913113 -0.007461618632078171 0.0007386513752862811
-0.004035506397485733 0.009738998487591743 0.0007220404222607613
-0.005859256722033024 0.008764135651290417 0.0007230174378491938
0.010545770637691021 -4.787267698702635e-06 0.0007318116840906441
0.010343239642679691 0.0020534726791083813 0.0007298572454601526
-0.0020576780661940575 -0.01034744642674923 0.000740605581086129
0.00745644373819232 0.0074530127458274364 0.0007239945698529482
0.005858481861650944 -0.008772742003202438 0.0007396285654976964
-0.009743204340338707 -0.004039906430989504 0.000735719979275018
-0.0020576780661940575 0.010338839143514633 0.0007220404222607613
0.010343239642679691 -0.0020620778668671846 0.0007337657152675092
-0.004035506397485733 -0.009747604839503765 0.000740605581086129
-0.008768340572714806 0.0058540827594697475 0.0007259488338604569
0.0087685352191329 0.0058540827594697475 0.0007259488338604569
0.00403570057824254 -0.009747604839503765 0.000740605581086129
-0.010343044996261597 -0.0020620778668671846 0.0007337657152675092
0.0020569032058119774 0.010338839143514633 0.0007220404222607613
-3.8732528651053144e-07 0.010541370138525963 0.0007220404222607613
0.009742429479956627 -0.004039906430989504 0.000735719979275018
-0.005859256722033024 -0.008772742003202438 0.0007396285654976964
-0.007457218132913113 0.0074530127458274364 0.0007239945698529482
0.009742429479956627 0.004031301010400057 0.000727902865037322
0.0018534032860770822 0.009313585236668587 -0.002094010589644313
0.003636453067883849 0.008772856555879116 -0.002094010589644313
0.0031760812271386385 0.007651081774383783 -0.014772102236747742
0.0016195456264540553 0.008122698403894901 -0.014772102236747742
0.005278990603983402 -0.007907381281256676 -0.00207837694324553
0.006718997377902269 -0.006726109888404608 -0.002079353667795658
-0.007901041768491268 0.005273621529340744 -0.0020910794846713543
0.003636453067883849 -0.008785340934991837 -0.002077399753034115
-3.8732528651053144e-07 0.009496736340224743 -0.002094010589644313
-0.0067197722382843494 0.006713628303259611 -0.0020920566748827696
0.0018534032860770822 -0.009326069615781307 -0.002077399753034115
-0.005279765464365482 0.00789489783346653 -0.0020930333994328976
-3.8732528651053144e-07 -0.009509218856692314 -0.002077399753034115
0.005278990603983402 0.00789489783346653 -0.0020930333994328976
-0.003636258654296398 0.008772856555879116 -0.002094010589644313
-0.0018541777972131968 -0.009326069615781307 -0.002077399753034115
0.006718997377902269 0.006713628303259611 -0.0020920566748827696
-0.0018541777972131968 0.009313585236668587 -0.002094010589644313
-0.003636258654296398 -0.008785340934991837 -0.002077399753034115
0.007901238277554512 0.005273621529340744 -0.0020910794846713543
-0.005279765464365482 -0.007907381281256676 -0.00207837694324553
0.008779195137321949 0.0036301149521023035 -0.0020891251042485237
-0.0067197722382843494 -0.006726109888404608 -0.002079353667795658
0.009319924749433994 0.001848034095019102 -0.002087170723825693
-0.007901041768491268 -0.005286103114485741 -0.002080331090837717
0.009503073990345001 -6.725365437887376e-06 -0.002085216576233506
-0.008779969066381454 -0.0036425963044166565 -0.002082285238429904
0.009319924749433994 -0.0018605157965794206 -0.002083262661471963
-0.009320699609816074 -0.0018605157965794206 -0.002083262661471963
0.008779195137321949 -0.0036425963044166565 -0.002082285238429904
-0.009502880275249481 -6.725365437887376e-06 -0.002085216576233506
0.007901238277554512 -0.005286103114485741 -0.002080331090837717
0.006900472100824118 0.004593495279550552 -0.014769172295928001
0.007667346391826868 0.003158827079460025 -0.01476819347590208
0.00680337380617857 0.0027882703579962254 -0.03034539520740509
0.006122699473053217 0.004061439074575901 -0.030347345396876335
-0.00461155129596591 0.0068842084147036076 -0.014771126210689545
-0.005868867971003056 0.0058518024161458015 -0.014770149253308773
-4.00893526375512e-07 -0.008316537365317345 -0.014757444150745869
0.0016195456264540553 -0.00815702136605978 -0.014757444150745869
0.004610749427229166 0.0068842084147036076 -0.014771126210689545
-0.003175892401486635 0.007651081774383783 -0.014772102236747742
-0.0016193565679714084 -0.00815702136605978 -0.014757444150745869
0.0058690570294857025 0.0058518024161458015 -0.014770149253308773
-0.0016193565679714084 0.008122698403894901 -0.014772102236747742
-0.003175892401486635 -0.007685402408242226 -0.014757444150745869
-4.00893526375512e-07 0.00828221719712019 -0.014772102236747742
-0.00461155129596591 -0.0069185285829007626 -0.014758422039449215
-0.005868867971003056 -0.005886122118681669 -0.014759399928152561
0.008139953948557377 0.0016022910131141543 -0.014766239561140537
-0.006901273969560862 -0.00462781498208642 -0.014760377816855907
0.00829947181046009 -1.765550405252725e-05 -0.014765261672437191
-0.007668147794902325 -0.0031931467819958925 -0.014761353842914104
0.008139953948557377 -0.0016366112977266312 -0.014764286577701569
-0.00814075581729412 -0.0016366112977266312 -0.014764286577701569
0.007667346391826868 -0.0031931467819958925 -0.014761353842914104
-0.008300273679196835 -1.765550405252725e-05 -0.014765261672437191
0.006900472100824118 -0.00462781498208642 -0.014760377816855907
-0.00814075581729412 0.0016022910131141543 -0.014766239561140537
0.0058690570294857025 -0.005886122118681669 -0.014759399928152561
-0.007668147794902325 0.003158827079460025 -0.01476819347590208
0.004610749427229166 -0.0069185285829007626 -0.014758422039449215
-0.006901273969560862 0.004593495279550552 -0.014769172295928001
0.0031760812271386385 -0.007685402408242226 -0.014757444150745869
-0.007363974116742611 -3.0535808036802337e-05 -0.030343441292643547
-0.007223282475024462 0.001407104660756886 -0.030344417318701744
-0.005440845154225826 0.0010325850453227758 -0.05448506027460098
-0.005547850858420134 -5.035167123423889e-05 -0.054484087973833084
-0.005207017995417118 -0.005237152799963951 -0.030338555574417114
-0.004091384820640087 -0.006153636611998081 -0.030338555574417114
0.0072224801406264305 0.001407104660756886 -0.030344417318701744
-0.006123501341789961 -0.0041215200908482075 -0.030339529737830162
0.007364163175225258 -3.0535808036802337e-05 -0.030343441292643547
-0.006804175674915314 -0.0028483509086072445 -0.030341483652591705
0.0072224801406264305 -0.0014671856770291924 -0.0303424634039402
-0.007223282475024462 -0.0014671856770291924 -0.0303424634039402
0.00680337380617857 -0.0028483509086072445 -0.030341483652591705
0.006122699473053217 -0.0041215200908482075 -0.030339529737830162
0.005207206588238478 -0.005237152799963951 -0.030338555574417114
-0.006804175674915314 0.0027882703579962254 -0.03034539520740509
0.004091573413461447 -0.006153636611998081 -0.030338555574417114
-0.006123501341789961 0.004061439074575901 -0.030347345396876335
0.0028184051625430584 -0.006833320017904043 -0.03033757582306862
0.0014362488873302937 0.007192344404757023 -0.030350280925631523
-4.00893526375512e-07 0.0073340279050171375 -0.030350280925631523
-0.005207017995417118 0.005177071783691645 -0.030349301174283028
0.0014362488873302937 -0.007252426352351904 -0.03033757582306862
0.0028184051625430584 0.006773239467293024 -0.030350280925631523
-0.004091384820640087 0.006093555595725775 -0.030349301174283028
-4.00893526375512e-07 -0.007394109386950731 -0.03033757582306862
0.004091573413461447 0.006093555595725775 -0.030349301174283028
-0.002818216336891055 0.006773239467293024 -0.030350280925631523
-0.0014370506396517158 -0.007252426352351904 -0.03033757582306862
0.005207206588238478 0.005177071783691645 -0.030349301174283028
-0.0014370506396517158 0.007192344404757023 -0.030350280925631523
-0.002818216336891055 -0.006833320017904043 -0.03033757582306862
-4.00893526375512e-07 0.005497098434716463 -0.05448896810412407
0.001082535833120346 0.005391083657741547 -0.05448896810412407
0.002330934861674905 0.01165685709565878 -0.0662759318947792
-4.00893526375512e-07 0.011886720545589924 -0.0662759318947792
0.003922148607671261 -0.003972900565713644 -0.054481156170368195
0.004612731281667948 -0.00313171767629683 -0.054481156170368195
-0.005124782212078571 0.002072917763143778 -0.05448604002594948
0.0030819557141512632 -0.004662493243813515 -0.0544801764190197
-0.0046125417575240135 0.0030320053920149803 -0.054487016052007675
0.0021228683181107044 -0.005174732767045498 -0.0544801764190197
-0.003922950476408005 0.003872198285534978 -0.054487016052007675
0.001082535833120346 -0.0054907952435314655 -0.0544792003929615
0.0021228683181107044 0.005075020715594292 -0.05448799207806587
-0.0030817671213299036 0.004562780726701021 -0.05448799207806587
-4.00893526375512e-07 -0.005596810951828957 -0.0544792003929615
0.0030819557141512632 0.004562780726701021 -0.05448799207806587
-0.002122679492458701 0.005075020715594292 -0.05448799207806587
-0.0010823467746376991 -0.0054907952435314655 -0.0544792003929615
0.003922148607671261 0.003872198285534978 -0.054487016052007675
-0.0010823467746376991 0.005391083657741547 -0.05448896810412407
-0.002122679492458701 -0.005174732767045498 -0.0544801764190197
0.004612731281667948 0.0030320053920149803 -0.054487016052007675
-0.0030817671213299036 -0.004662493243813515 -0.0544801764190197
0.005124970804899931 0.002072917763143778 -0.05448604002594948
-0.003922950476408005 -0.003972900565713644 -0.054481156170368195
0.005441034212708473 0.0010325850453227758 -0.05448506027460098
-0.0046125417575240135 -0.00313171767629683 -0.054481156170368195
0.005547048524022102 -5.035167123423889e-05 -0.054484087973833084
-0.005124782212078571 -0.0021726302802562714 -0.05448212847113609
0.005441034212708473 -0.001132297795265913 -0.05448310822248459
-0.005440845154225826 -0.001132297795265913 -0.05448310822248459
0.005124970804899931 -0.0021726302802562714 -0.05448212847113609
0.006636920850723982 0.009873430244624615 -0.06627495586872101
0.008447100408375263 0.008387240581214428 -0.06627300381660461
0.02472931146621704 0.02445082738995552 -0.06971769779920578
0.019430087879300117 0.02876209281384945 -0.06972061842679977
-0.008446910418570042 0.008387240581214428 -0.06627300381660461
-0.009933101013302803 0.006577062886208296 -0.06627201288938522
0.002330934861674905 -0.011776387691497803 -0.06625540554523468
0.004571117926388979 -0.011096703819930553 -0.06625540554523468
0.004571117926388979 0.01097717322409153 -0.0662759318947792
-0.006636732257902622 0.009873430244624615 -0.06627495586872101
-4.00893526375512e-07 -0.012006252072751522 -0.06625540554523468
-0.004571919795125723 0.01097717322409153 -0.0662759318947792
-0.0023307460360229015 -0.011776387691497803 -0.06625540554523468
-0.0023307460360229015 0.01165685709565878 -0.0662759318947792
-0.004571919795125723 -0.011096703819930553 -0.06625540554523468
0.009932299144566059 0.006577062886208296 -0.06627201288938522
-0.006636732257902622 -0.009992958977818489 -0.06625639647245407
0.01103703211992979 0.0045122504234313965 -0.06627006828784943
-0.008446910418570042 -0.008506771177053452 -0.06625931710004807
0.011716716922819614 0.0022710764314979315 -0.06626811623573303
-0.009933101013302803 -0.006696591153740883 -0.06626030057668686
0.011945589445531368 -6.0259604651946574e-05 -0.06626615673303604
-0.011036843061447144 -0.0046317786909639835 -0.06626226007938385
0.011716716922819614 -0.002390604466199875 -0.06626420468091965
-0.011716527864336967 -0.002390604466199875 -0.06626420468091965
0.01103703211992979 -0.0046317786909639835 -0.06626226007938385
-0.011946391314268112 -6.0259604651946574e-05 -0.06626615673303604
0.009932299144566059 -0.006696591153740883 -0.06626030057668686
-0.011716527864336967 0.0022710764314979315 -0.06626811623573303
0.008447100408375263 -0.008506771177053452 -0.06625931710004807
-0.011036843061447144 0.0045122504234313965 -0.06627006828784943
0.006636920850723982 -0.009992958977818489 -0.06625639647245407
-0.0016419775784015656 0.0016427697846665978 -0.06064789369702339
-0.0012902250746265054 0.0019315668614581227 -0.06064887344837189
0.0008888603188097477 0.0021461762953549623 -0.060649849474430084
0.0012904617469757795 0.0019315668614581227 -0.06064887344837189
-0.006822626106441021 0.03393910452723503 -0.06972453743219376
-0.013382982462644577 0.03196627274155617 -0.06972355395555496
-0.013384007848799229 -0.03209371864795685 -0.06967273354530334
-0.006822626106441021 -0.03406655043363571 -0.06967176496982574
0.029078572988510132 0.01919679343700409 -0.0697137862443924
-3.9171933963189076e-07 0.03460459038615227 -0.06972550600767136
-0.019429843872785568 -0.02888953872025013 -0.06967567652463913
0.03231048211455345 0.013203330338001251 -0.06970792263746262
-0.02472906932234764 -0.0245782732963562 -0.06967860460281372
0.034300774335861206 0.006699461489915848 -0.06970303505659103
-0.029078328981995583 -0.01932423561811447 -0.0696825161576271
0.0349724180996418 -6.423568265745416e-05 -0.06969814747571945
-0.03231023624539375 -0.013331803493201733 -0.06968740373849869
0.034300774335861206 -0.006827931851148605 -0.06969325989484787
-0.03430052846670151 -0.006827931851148605 -0.06969325989484787
0.03231048211455345 -0.013331803493201733 -0.06968740373849869
-0.03497320041060448 -6.423568265745416e-05 -0.06969814747571945
0.029078572988510132 -0.01932423561811447 -0.0696825161576271
-0.03430052846670151 0.006700488273054361 -0.06970303505659103
0.02472931146621704 -0.0245782732963562 -0.06967860460281372
-0.03231023624539375 0.013203330338001251 -0.06970792263746262
0.019430087879300117 -0.02888953872025013 -0.06967567652463913
-0.029078328981995583 0.01919679343700409 -0.0697137862443924
0.013383223675191402 -0.03209371864795685 -0.06967273354530334
0.00682287011295557 0.03393910452723503 -0.06972453743219376
-0.02472906932234764 0.02445082738995552 -0.06971769779920578
0.00682287011295557 -0.03406655043363571 -0.06967176496982574
0.013383223675191402 0.03196627274155617 -0.06972355395555496
-0.019429843872785568 0.02876209281384945 -0.06972061842679977
-3.9171933963189076e-07 -0.03473203629255295 -0.06966982036828995
-0.008119949139654636 -0.04079572111368179 0.03723396733403206
-0.015928389504551888 -0.038427725434303284 0.03723201900720596
-0.03845406323671341 0.015954919159412384 0.037186089903116226
-0.03460780531167984 0.02315104752779007 0.03717925399541855
0.02943209558725357 0.029458433389663696 0.03717338666319847
0.03460799530148506 0.02315104752779007 0.03717925399541855
0.023124707862734795 -0.03458147123456001 0.03722907975316048
0.01592857949435711 -0.038427725434303284 0.03723201900720596
-0.03844613954424858 -0.015805939212441444 0.03721247613430023
-0.04082305729389191 -0.008093609474599361 0.037206608802080154
-4.00893526375512e-07 0.04164915531873703 0.037162646651268005
0.008119147270917892 0.040849585086107254 0.037163618952035904
-0.008119949139654636 0.040849585086107254 0.037163618952035904
0.03845425695180893 -0.015901057049632072 0.03721247613430023
-0.023124516010284424 -0.03458147123456001 0.03722907975316048
-0.02943190559744835 0.029458433389663696 0.03717338666319847
0.03845425695180893 0.015954919159412384 0.037186089903116226
0.008119147270917892 -0.04079572111368179 0.03723396733403206
-0.041622623801231384 2.5939385523088276e-05 0.03719879686832428
0.01592857949435711 0.038480594754219055 0.037166547030210495
0.03460799530148506 -0.023097185418009758 0.03721833601593971
-0.02943190559744835 -0.029404576867818832 0.03722517937421799
-0.023124516010284424 0.03463532775640488 0.03716948255896568
0.04082225263118744 0.00814746879041195 0.037191953510046005
-4.00893526375512e-07 -0.04159628599882126 0.037234947085380554
-0.04082305729389191 0.00814746879041195 0.037191953510046005
0.023124707862734795 0.03463532775640488 0.03716948255896568
0.02943209558725357 -0.029404576867818832 0.03722517937421799
-0.03460780531167984 -0.023097185418009758 0.03721833601593971
-0.015928389504551888 0.038480594754219055 0.037166547030210495
0.027959777042269707 -0.02793324552476406 0.037223223596811295
0.021967461332678795 -0.03285055607557297 0.03722810745239258
-0.036530934274196625 0.015159309841692448 0.037186089903116226
-0.032877884805202484 0.02199578285217285 0.037180230021476746
0.015131979249417782 -0.0365046001970768 0.03723103925585747
-4.00893526375512e-07 0.0395674966275692 0.0371645949780941
0.007713913451880217 0.03880855068564415 0.0371645949780941
-0.027959587052464485 0.027987107634544373 0.03717436641454697
0.007713913451880217 -0.03875468671321869 0.03723299503326416
0.015131979249417782 0.03655845671892166 0.03716752305626869
-0.021968264132738113 0.03290441259741783 0.03717045858502388
-4.00893526375512e-07 -0.03951462730765343 0.03723299503326416
0.021967461332678795 0.03290441259741783 0.03717045858502388
-0.01513179112225771 0.03655845671892166 0.03716752305626869
-0.00771372439339757 -0.03875468671321869 0.03723299503326416
0.027959777042269707 0.027987107634544373 0.03717436641454697
-0.00771372439339757 0.03880855068564415 0.0371645949780941
-0.01513179112225771 -0.0365046001970768 0.03723103925585747
0.03287807106971741 0.02199578285217285 0.037180230021476746
-0.021968264132738113 -0.03285055607557297 0.03722810745239258
0.036531127989292145 0.015159309841692448 0.037186089903116226
-0.027959587052464485 -0.02793324552476406 0.037223223596811295
0.03878220543265343 0.007741244044154882 0.037191953510046005
-0.032877884805202484 -0.0219409316778183 0.037217359989881516
0.039541155099868774 2.693018177524209e-05 0.03719879686832428
-0.036524005234241486 -0.01501529011875391 0.03721247613430023
0.03878220543265343 -0.007687384728342295 0.037205636501312256
-0.0387820228934288 -0.007687384728342295 0.037205636501312256
0.036531127989292145 -0.015105451457202435 0.03721247613430023
-0.03954096511006355 2.693018177524209e-05 0.03719879686832428
0.03287807106971741 -0.0219409316778183 0.037217359989881516
-0.0387820228934288 0.007741244044154882 0.037191953510046005
0.007675272412598133 -0.03856643661856651 0.033142779022455215
-4.00893526375512e-07 -0.03932340443134308 0.03314375877380371
0.015056678093969822 0.03637417405843735 0.03307731822133064
0.021859465166926384 0.032737959176301956 0.03308025002479553
-0.02185927703976631 0.032737959176301956 0.03308025002479553
-0.015057481825351715 0.03637417405843735 0.03307731822133064
-0.00767607381567359 -0.03856643661856651 0.033142779022455215
0.027822056785225868 0.02784443274140358 0.03308610990643501
-0.00767607381567359 0.03861236944794655 0.03307633474469185
-0.015057481825351715 -0.036327242851257324 0.03314082697033882
0.032714586704969406 0.021881841123104095 0.033090997487306595
-4.00893526375512e-07 0.03936834633350372 0.03307535871863365
-0.02185927703976631 -0.03269202634692192 0.033136919140815735
0.036349810659885406 0.015080045908689499 0.03309588134288788
-0.027821866795420647 -0.027799490839242935 0.03313301131129265
0.038589004427194595 0.0076986392959952354 0.033102720975875854
-0.03271440416574478 -0.02183689922094345 0.033128123730421066
0.03934597223997116 2.2967007680563256e-05 0.03310956060886383
-0.036342691630125046 -0.01494494266808033 0.03312226012349129
0.038589004427194595 -0.007653697859495878 0.03311542049050331
-0.038588814437389374 -0.007652706000953913 0.03311542049050331
0.036349810659885406 -0.015034115873277187 0.03312226012349129
-0.03934577852487564 2.2967007680563256e-05 0.03310956060886383
0.032714586704969406 -0.02183689922094345 0.033128123730421066
-0.038588814437389374 0.0076986392959952354 0.033102720975875854
0.027822056785225868 -0.027799490839242935 0.03313301131129265
-0.036350611597299576 0.015080045908689499 0.03309588134288788
0.021859465166926384 -0.03269202634692192 0.033136919140815735
-0.03271440416574478 0.021881841123104095 0.033090997487306595
0.015056678093969822 -0.036327242851257324 0.03314082697033882
0.007675272412598133 0.03861236944794655 0.03307633474469185
-0.027821866795420647 0.02784443274140358 0.03308610990643501
-0.01470277737826109 -0.03547615557909012 0.029148323461413383
-0.021345052868127823 -0.031925152987241745 0.029145393520593643
0.031945738941431046 0.021364647895097733 0.029098492115736008
0.03549574688076973 0.014722371473908424 0.029105331748723984
-0.027167944237589836 -0.027147550135850906 0.029141483828425407
0.03768143430352211 0.007514351978898048 0.029111191630363464
-0.031945548951625824 -0.021325649693608284 0.029135623946785927
0.03842056915163994 1.9994628019048832e-05 0.029117057099938393
-0.03548862412571907 -0.014595193788409233 0.029128780588507652
0.03768143430352211 -0.0074753547087311745 0.02912389673292637
-0.03768223524093628 -0.0074753547087311745 0.02912389673292637
0.03549574688076973 -0.014682382345199585 0.029129760339856148
-0.03842037916183472 1.9994628019048832e-05 0.029117057099938393
0.031945738941431046 -0.021325649693608284 0.029135623946785927
-0.03768223524093628 0.007515342440456152 0.029111191630363464
0.027167141437530518 -0.027147550135850906 0.029141483828425407
-0.0354965478181839 0.014722371473908424 0.029105331748723984
0.021345242857933044 -0.031925152987241745 0.029145393520593643
-0.031945548951625824 0.021364647895097733 0.029098492115736008
0.014701975509524345 -0.03547615557909012 0.029148323461413383
-4.00893526375512e-07 0.038439977914094925 0.029084810987114906
0.007494947407394648 0.03770183399319649 0.029084810987114906
-0.027167944237589836 0.027187539264559746 0.029093604534864426
0.007494947407394648 -0.0376618430018425 0.029150279238820076
0.014701975509524345 0.03551614657044411 0.02908676490187645
-0.021345052868127823 0.031965143978595734 0.02908969856798649
-4.00893526375512e-07 -0.03840097412467003 0.029150279238820076
0.021345242857933044 0.031965143978595734 0.02908969856798649
-0.01470277737826109 0.03551614657044411 0.02908676490187645
-0.007494758814573288 -0.0376618430018425 0.029150279238820076
0.027167141437530518 0.027187539264559746 0.029093604534864426
-0.007494758814573288 0.03770183399319649 0.029084810987114906
-0.03105184994637966 -0.02073216252028942 0.024947699159383774
-0.034495845437049866 -0.01418995950371027 0.024941835552453995
0.037344567477703094 1.6031455743359402e-05 0.024930110201239586
0.036627236753702164 -0.007270260713994503 0.024935973808169365
-0.03662704676389694 -0.007270260713994503 0.024935973808169365
0.03450198471546173 -0.01427516806870699 0.024941835552453995
-0.03734437748789787 1.6031455743359402e-05 0.024930110201239586
0.031051049008965492 -0.02073216252028942 0.024947699159383774
-0.03662704676389694 0.0073023224249482155 0.02492327056825161
0.026406213641166687 -0.02639058232307434 0.024952583014965057
-0.0345027856528759 0.014307229779660702 0.02491740882396698
0.020747793838381767 -0.031035419553518295 0.024956492707133293
-0.03105184994637966 0.020763235166668892 0.024912523105740547
0.014290797524154186 -0.034486353397369385 0.024959424510598183
-4.00893526375512e-07 0.03736000880599022 0.024897867813706398
0.007285890635102987 0.03664267435669899 0.024897867813706398
-0.026407016441226006 0.026422645896673203 0.024907637387514114
0.007285890635102987 -0.03661160543560982 0.024961378425359726
0.014290797524154186 0.03451841324567795 0.024899818003177643
-0.020747605711221695 0.03106747940182686 0.024902749806642532
-4.00893526375512e-07 -0.03732893615961075 0.024961378425359726
0.020747793838381767 0.03106747940182686 0.024902749806642532
-0.014291598461568356 0.03451841324567795 0.024899818003177643
-0.00728570157662034 -0.03661160543560982 0.024961378425359726
0.026406213641166687 0.026422645896673203 0.024907637387514114
-0.00728570157662034 0.03664267435669899 0.024897867813706398
-0.014291598461568356 -0.034486353397369385 0.024959424510598183
0.031051049008965492 0.020763235166668892 0.024912523105740547
-0.020747605711221695 -0.031035419553518295 0.024956492707133293
0.03450198471546173 0.014307229779660702 0.02491740882396698
-0.026407016441226006 -0.02639058232307434 0.024952583014965057
0.036627236753702164 0.0073023224249482155 0.02492327056825161
-0.03642987832427025 1.3059078810329083e-05 0.020743167027831078
-0.035729385912418365 0.0071200174279510975 0.02073730155825615
0.03029012307524681 -0.0202268585562706 0.020760754123330116
0.025759225711226463 -0.02574656717479229 0.0207656379789114
-0.03365664929151535 0.013954507187008858 0.020730461925268173
0.020239517092704773 -0.030277462676167488 0.02076856791973114
-0.03028993308544159 0.020252978429198265 0.02072557806968689
0.013941045850515366 -0.0336441807448864 0.020772477611899376
-4.00893526375512e-07 0.03644253686070442 0.02071092091500759
0.007107547949999571 0.03574204444885254 0.02071189694106579
-0.02575903758406639 0.025771694257855415 0.020720692351460457
0.007107547949999571 -0.035715922713279724 0.02077443152666092
0.013941045850515366 0.033670298755168915 0.02071482688188553
-0.02023932710289955 0.030302589759230614 0.020717760547995567
-4.00893526375512e-07 -0.036416418850421906 0.020775407552719116
0.020239517092704773 0.030302589759230614 0.020717760547995567
-0.013940857723355293 0.033670298755168915 0.02071482688188553
-0.007107358891516924 -0.035715922713279724 0.02077443152666092
0.025759225711226463 0.025771694257855415 0.020720692351460457
-0.007107358891516924 0.03574204444885254 0.02071189694106579
-0.013940857723355293 -0.0336441807448864 0.020772477611899376
0.03029012307524681 0.020250996574759483 0.02072557806968689
-0.02023932710289955 -0.030277462676167488 0.02076856791973114
0.03365683555603027 0.013954507187008858 0.020730461925268173
-0.02575903758406639 -0.02574656717479229 0.0207656379789114
0.03572957217693329 0.0071200174279510975 0.02073730155825615
-0.03028993308544159 -0.0202268585562706 0.020760754123330116
0.03643006458878517 1.3059078810329083e-05 0.020743167027831078
-0.033649712800979614 -0.013845163397490978 0.020755866542458534
0.03572957217693329 -0.007093898952007294 0.020749026909470558
-0.035729385912418365 -0.007093898952007294 0.020749026909470558
0.03365683555603027 -0.013928390108048916 0.020755866542458534
-4.00893526375512e-07 0.0350583977997303 0.016720375046133995
0.006837061606347561 0.03438565135002136 0.016720375046133995
-0.029141603037714958 0.019482143223285675 0.016734054312109947
-0.02478310652077198 0.024792790412902832 0.016729168593883514
0.013412954285740852 -0.03237101063132286 0.016778025776147842
0.006837061606347561 -0.03436547890305519 0.016779977828264236
0.013412954285740852 0.03239019215106964 0.01672232896089554
-0.019472455605864525 0.02915128879249096 0.01672428473830223
-4.00893526375512e-07 -0.03503921627998352 0.016779977828264236
0.019471652805805206 0.02915128879249096 0.01672428473830223
-0.013412765227258205 0.03239019215106964 0.01672232896089554
-0.006837863475084305 -0.03436547890305519 0.016779977828264236
0.024783294647932053 0.024792790412902832 0.016729168593883514
-0.006837863475084305 0.03438565135002136 0.016720375046133995
-0.013412765227258205 -0.03237101063132286 0.016778025776147842
0.02914178930222988 0.019482143223285675 0.016734054312109947
-0.019472455605864525 -0.029131116345524788 0.016775093972682953
0.03238069638609886 0.013422450050711632 0.01673894189298153
-0.02478310652077198 -0.02477360889315605 0.016772160306572914
0.034375157207250595 0.006847549229860306 0.016743825748562813
-0.029141603037714958 -0.019461968913674355 0.01676727831363678
0.03504790738224983 1.008669914881466e-05 0.01675066538155079
-0.032373569905757904 -0.01332202460616827 0.016761414706707
0.034375157207250595 -0.006827374920248985 0.016756528988480568
-0.03437497466802597 -0.006827374920248985 0.016756528988480568
0.03238069638609886 -0.013402278535068035 0.016761414706707
-0.03504772111773491 1.008669914881466e-05 0.01675066538155079
0.02914178930222988 -0.019461968913674355 0.01676727831363678
-0.03437497466802597 0.006847549229860306 0.016743825748562813
0.024783294647932053 -0.02477360889315605 0.016772160306572914
-0.03238150104880333 0.013422450050711632 0.01673894189298153
0.019471652805805206 -0.029131116345524788 0.016775093972682953
0.019471652805805206 0.02915128879249096 0.01672428473830223
0.024783294647932053 0.024792790412902832 0.016729168593883514
-0.013412765227258205 0.03239019215106964 0.01672232896089554
-0.006837863475084305 0.03438565135002136 0.016720375046133995
-0.006837863475084305 -0.03436547890305519 0.016779977828264236
-0.013412765227258205 -0.03237101063132286 0.016778025776147842
0.02914178930222988 0.019482143223285675 0.016734054312109947
-4.00893526375512e-07 0.0350583977997303 0.016720375046133995
-0.019472455605864525 -0.029131116345524788 0.016775093972682953
0.03238069638609886 0.013422450050711632 0.01673894189298153
-0.02478310652077198 -0.02477360889315605 0.016772160306572914
0.034375157207250595 0.006847549229860306 0.016743825748562813
-0.029141603037714958 -0.019461968913674355 0.01676727831363678
0.03504790738224983 1.008669914881466e-05 0.01675066538155079
-0.032373569905757904 -0.01332202460616827 0.016761414706707
0.034375157207250595 -0.006827374920248985 0.016756528988480568
-0.03437497466802597 -0.006827374920248985 0.016756528988480568
0.03238069638609886 -0.013402278535068035 0.016761414706707
-0.03504772111773491 1.008669914881466e-05 0.01675066538155079
0.02914178930222988 -0.019461968913674355 0.01676727831363678
-0.03437497466802597 0.006847549229860306 0.016743825748562813
0.024783294647932053 -0.02477360889315605 0.016772160306572914
-0.03238150104880333 0.013422450050711632 0.01673894189298153
0.019471652805805206 -0.029131116345524788 0.016775093972682953
-0.029141603037714958 0.019482143223285675 0.016734054312109947
0.013412954285740852 -0.03237101063132286 0.016778025776147842
0.006837061606347561 0.03438565135002136 0.016720375046133995
-0.02478310652077198 0.024792790412902832 0.016729168593883514
0.006837061606347561 -0.03436547890305519 0.016779977828264236
0.013412954285740852 0.03239019215106964 0.01672232896089554
-0.019472455605864525 0.02915128879249096 0.01672428473830223
-4.00893526375512e-07 -0.03503921627998352 0.016779977828264236
0.028214409947395325 0.011692526750266552 0.01255394984036684
0.029952263459563255 0.0059647527523338795 0.012558835558593273
-0.021594734862446785 -0.02158920094370842 0.012582285329699516
-0.02539343386888504 -0.01696120575070381 0.01257837750017643
0.030538810417056084 6.12352732787258e-06 0.012563719414174557
-0.028208276256918907 -0.011610924266278744 0.012574468739330769
0.029952263459563255 -0.005951514467597008 0.012568606063723564
-0.029952073469758034 -0.005951514467597008 0.012568606063723564
0.028214409947395325 -0.011681271716952324 0.012574468739330769
-0.030538620427250862 6.12352732787258e-06 0.012563719414174557
0.025392631068825722 -0.01696120575070381 0.01257837750017643
-0.029952073469758034 0.0059647527523338795 0.012558835558593273
0.021593933925032616 -0.02158920094370842 0.012582285329699516
-0.028214221820235252 0.011692526750266552 0.01255394984036684
0.0169669296592474 -0.025386909022927284 0.012585217133164406
-0.02539343386888504 0.016972461715340614 0.012549064122140408
0.011686992831528187 -0.028208686038851738 0.012588147073984146
-4.00893526375512e-07 0.03054533526301384 0.012537337839603424
0.005958227906376123 0.029958784580230713 0.01253831572830677
-0.021594734862446785 0.021600456908345222 0.012545154429972172
0.005958227906376123 -0.02994653768837452 0.01259010098874569
0.011686992831528187 0.02822093665599823 0.012539291754364967
-0.016966737806797028 0.025398166850209236 0.012542224489152431
-4.00893526375512e-07 -0.030534079298377037 0.012591080740094185
0.0169669296592474 0.025398166850209236 0.012542224489152431
-0.011686804704368114 0.02822093665599823 0.012539291754364967
-0.0059580388478934765 -0.02994653768837452 0.01259010098874569
0.021593933925032616 0.021600456908345222 0.012545154429972172
-0.0059580388478934765 0.029958784580230713 0.01253831572830677
-0.011686804704368114 -0.028208686038851738 0.012588147073984146
0.025392631068825722 0.016972461715340614 0.012549064122140408
-0.016966737806797028 -0.025386909022927284 0.012585217133164406
0.024957675486803055 -0.0049607218243181705 0.008478393778204918
0.023510126397013664 -0.009734363295137882 0.008482302539050579
-0.024958476424217224 -0.0049607218243181705 0.008478393778204918
-0.02544594742357731 4.141941190027865e-06 0.008474486880004406
0.02115798182785511 -0.014134474098682404 0.008486212231218815
-0.024958476424217224 0.0049670240841805935 0.008469600230455399
0.017993392422795296 -0.017990639433264732 0.008489142172038555
-0.023509936407208443 0.009741654619574547 0.008465691469609737
0.014137223362922668 -0.021155232563614845 0.008493051864206791
-0.021157793700695038 0.014140775427222252 0.008461784571409225
0.009738102555274963 -0.02350638434290886 0.008495005778968334
-4.00893526375512e-07 0.025449687615036964 0.008452012203633785
0.004964462481439114 0.02496122568845749 0.008452012203633785
-0.017993202432990074 0.01799694448709488 0.008458852767944336
0.004964462481439114 -0.0249539315700531 0.008495981805026531
0.009738102555274963 0.023513678461313248 0.008453966118395329
-0.014137035235762596 0.021161535754799843 0.008455920964479446
-4.00893526375512e-07 -0.025443384423851967 0.008495981805026531
0.014137223362922668 0.021161535754799843 0.008455920964479446
-0.009738904424011707 0.023513678461313248 0.008453966118395329
-0.004964273888617754 -0.0249539315700531 0.008495981805026531
0.017993392422795296 0.01799694448709488 0.008458852767944336
-0.004964273888617754 0.02496122568845749 0.008452012203633785
-0.009738904424011707 -0.02350638434290886 0.008495005778968334
0.02115798182785511 0.014140775427222252 0.008461784571409225
-0.014137035235762596 -0.021155232563614845 0.008493051864206791
0.023510126397013664 0.009741654619574547 0.008465691469609737
-0.017993202432990074 -0.017990639433264732 0.008489142172038555
0.024957675486803055 0.0049670240841805935 0.008469600230455399
-0.021157793700695038 -0.014134474098682404 0.008486212231218815
0.02544613555073738 4.141941190027865e-06 0.008474486880004406
-0.023504983633756638 -0.009676896966993809 0.008482302539050579
0.006730918772518635 -0.006730133667588234 0.004488825798034668
0.005289113614708185 -0.007913891226053238 0.00448980275541544
-0.008795108646154404 0.0036435748916119337 0.004479054361581802
-0.007915445603430271 0.00528970779851079 0.004477100912481546
0.003642980707809329 -0.008793557062745094 0.0044907801784574986
-3.841554416794679e-07 0.009520154446363449 0.004473192151635885
0.001856791670434177 0.009336930699646473 0.004474169109016657
-0.006730727385729551 0.006732472684234381 0.0044761234894394875
0.001856791670434177 -0.009335552342236042 0.0044907801784574986
