-4.001853515234188e-09 0.021904168650507927 -0.01732550747692585
0.007543924264609814 0.037925876677036285 0.006475877016782761
0.0071062203496694565 0.03572539985179901 -0.0005403375253081322
0.006395429372787476 0.03215201199054718 -0.0070065222680568695
0.0054388646967709064 0.027343038469552994 -0.012674180790781975
0.004273288417607546 0.02148328721523285 -0.01732550747692585
0.0029434910975396633 0.014797945506870747 -0.020781753584742546
0.0021433564834296703 0.010775403119623661 -0.022910097613930702
0.014797940850257874 0.03572539612650871 0.006475877016782761
0.013939356431365013 0.03365258872509003 -0.0005403375253081322
0.012545090168714523 0.030286530032753944 -0.0070065222680568695
0.010668721050024033 0.025756577029824257 -0.012674180790781975
0.008382360450923443 0.02023681253194809 -0.01732550747692585
0.005773868877440691 0.013939358294010162 -0.020781753584742546
0.004204349126666784 0.01015020627528429 -0.022910097613930702
0.0214832816272974 0.03215200453996658 0.006475877016782761
0.02023680880665779 0.030286530032753944 -0.0005403375253081322
0.01821264810860157 0.027257155627012253 -0.0070065222680568695
0.015488584525883198 0.02318030782043934 -0.012674180790781975
0.012169302441179752 0.01821264997124672 -0.01732550747692585
0.008382360450923443 0.012545091100037098 -0.020781753584742546
0.006103771273046732 0.009134944528341293 -0.022910097613930702
0.027343031018972397 0.027343031018972397 0.006475877016782761
0.02575657330453396 0.025756577029824257 -0.0005403375253081322
0.02318030409514904 0.02318030409514904 -0.0070065222680568695
0.019713228568434715 0.019713230431079865 -0.012674180790781975
0.015488584525883198 0.015488582663238049 -0.01732550747692585
0.010668721050024033 0.010668722912669182 -0.020781753584742546
0.007768628187477589 0.007768630515784025 -0.022910097613930702
0.032152000814676285 0.021483279764652252 0.006475877016782761
0.030286524444818497 0.02023681253194809 -0.0005403375253081322
0.027257155627012253 0.01821264624595642 -0.0070065222680568695
0.02318030409514904 0.015488582663238049 -0.012674180790781975
0.01821264810860157 0.012169302441179752 -0.01732550747692585
0.012545091100037098 0.008382362313568592 -0.020781753584742546
0.009134942665696144 0.0061037736013531685 -0.022910097613930702
0.035725388675928116 0.014797937124967575 0.006475877016782761
0.03365258127450943 0.013939358294010162 -0.0005403375253081322
0.030286526307463646 0.012545088306069374 -0.0070065222680568695
0.025756575167179108 0.010668721050024033 -0.012674180790781975
0.02023681066930294 0.008382359519600868 -0.01732550747692585
0.013939357362687588 0.005773870274424553 -0.020781753584742546
0.010150201618671417 0.004204350523650646 -0.022910097613930702
0.03792587295174599 0.007543919142335653 0.006475877016782761
0.035725388675928116 0.007106223609298468 -0.0005403375253081322
0.03215200453996658 0.006395427975803614 -0.0070065222680568695
0.027343034744262695 0.005438865162432194 -0.012674180790781975
0.02148328348994255 0.004273287486284971 -0.01732550747692585
0.014797942712903023 0.0029434917960315943 -0.020781753584742546
0.010775396600365639 0.0021433578804135323 -0.022910097613930702
0.03866887465119362 -6.253212170292954e-09 0.006475877016782761
0.03642529249191284 2.0928922483953727e-10 -0.0005403375253081322
0.032781898975372314 -3.903132927973729e-09 -0.0070065222680568695
0.027878711000084877 -3.315663299474636e-09 -0.012674180790781975
0.02190416306257248 -4.196994307648083e-09 -0.01732550747692585
0.015087850391864777 -2.728193226886333e-09 -0.020781753584742546
0.01098649948835373 -2.807791998904463e-09 -0.022910097613930702
0.03792586550116539 -0.007543929852545261 0.006475877016782761
0.035725388675928116 -0.007106223609298468 -0.0005403375253081322
0.032152000814676285 -0.006395435426384211 -0.0070065222680568695
0.027343031018972397 -0.0054388707503676414 -0.012674180790781975
0.0214832816272974 -0.004273295868188143 -0.01732550747692585
0.014797940850257874 -0.0029434971511363983 -0.020781753584742546
0.010775396600365639 -0.0021433639340102673 -0.022910097613930702
0.03572537750005722 -0.014797943644225597 0.006475877016782761
0.03365258127450943 -0.013939356431365013 -0.0005403375253081322
0.030286520719528198 -0.012545092962682247 -0.0070065222680568695
0.02575657330453396 -0.010668724775314331 -0.012674180790781975
0.020236805081367493 -0.00838236603885889 -0.01732550747692585
0.013939354568719864 -0.005773874465376139 -0.020781753584742546
0.010150200687348843 -0.0042043570429086685 -0.022910097613930702
0.03215198963880539 -0.02148328348994255 0.006475877016782761
0.030286524444818497 -0.020236805081367493 -0.0005403375253081322
0.027257150039076805 -0.01821264997124672 -0.0070065222680568695
0.02318030223250389 -0.015488586388528347 -0.012674180790781975
0.018212642520666122 -0.012169305235147476 -0.01732550747692585
0.0125450873747468 -0.008382365107536316 -0.020781753584742546
0.009134940803050995 -0.0061037782579660416 -0.022910097613930702
0.02734302170574665 -0.027343029156327248 0.006475877016782761
0.02575657330453396 -0.02575657330453396 -0.0005403375253081322
0.023180294781923294 -0.02318030595779419 -0.0070065222680568695
0.019713222980499268 -0.019713230431079865 -0.012674180790781975
0.015488579869270325 -0.015488586388528347 -0.01732550747692585
0.010668717324733734 -0.010668724775314331 -0.020781753584742546
0.007768626324832439 -0.007768635172396898 -0.022910097613930702
0.021483272314071655 -0.032152000814676285 0.006475877016782761
0.02023680880665779 -0.030286520719528198 -0.0005403375253081322
0.018212638795375824 -0.027257151901721954 -0.0070065222680568695
0.015488579869270325 -0.02318030595779419 -0.012674180790781975
0.01216929592192173 -0.01821264810860157 -0.01732550747692585
0.008382357656955719 -0.012545092031359673 -0.020781753584742546
0.006103770341724157 -0.009134945459663868 -0.022910097613930702
0.014797931537032127 -0.03572538495063782 0.006475877016782761
0.013939354568719864 -0.03365258127450943 -0.0005403375253081322
0.012545080855488777 -0.030286520719528198 -0.0070065222680568695
0.010668715462088585 -0.02575657330453396 -0.012674180790781975
0.00838235579431057 -0.020236805081367493 -0.01732550747692585
0.005773866083472967 -0.013939358294010162 -0.020781753584742546
0.004204349126666784 -0.01015020627528429 -0.022910097613930702
0.007543917279690504 -0.03792586922645569 0.006475877016782761
0.0071062203496694565 -0.035725388675928116 -0.0005403375253081322
0.006395422387868166 -0.032151997089385986 -0.0070065222680568695
0.005438860971480608 -0.027343031018972397 -0.012674180790781975
0.004273285157978535 -0.02148328348994255 -0.01732550747692585
0.002943489933386445 -0.014797942712903023 -0.020781753584742546
0.0021433562505990267 -0.010775402188301086 -0.022910097613930702
-7.370587251642746e-09 -0.03866887465119362 0.006475877016782761
-1.4955955363049611e-09 -0.03642529249191284 -0.0005403375253081322
-7.370587251642746e-09 -0.03278189152479172 -0.0070065222680568695
-5.0206012680575896e-09 -0.027878712862730026 -0.012674180790781975
-4.433117872792991e-09 -0.02190416119992733 -0.01732550747692585
-3.845634921617602e-09 -0.015087850391864777 -0.020781753584742546
-4.459021596403545e-09 -0.010986502282321453 -0.022910097613930702
-0.007543929852545261 -0.03792586550116539 0.006475877016782761
-0.007106224074959755 -0.035725388675928116 -0.0005403375253081322
-0.006395436357706785 -0.03215198963880539 -0.0070065222680568695
-0.005438872613012791 -0.027343029156327248 -0.012674180790781975
-0.0042732940055429935 -0.0214832816272974 -0.01732550747692585
-0.002943496685475111 -0.014797940850257874 -0.020781753584742546
-0.0021433646325021982 -0.010775401256978512 -0.022910097613930702
-0.014797943644225597 -0.03572537750005722 0.006475877016782761
-0.013939357362687588 -0.03365258127450943 -0.0005403375253081322
-0.012545092031359673 -0.030286509543657303 -0.0070065222680568695
-0.010668724775314331 -0.02575657144188881 -0.012674180790781975
-0.008382364176213741 -0.020236805081367493 -0.01732550747692585
-0.005773873068392277 -0.013939355500042439 -0.020781753584742546
-0.004204356111586094 -0.010150204412639141 -0.022910097613930702
-0.0214832816272974 -0.03215198591351509 0.006475877016782761
-0.02023680880665779 -0.030286520719528198 -0.0005403375253081322
-0.01821264624595642 -0.02725713886320591 -0.0070065222680568695
-0.015488586388528347 -0.023180300369858742 -0.012674180790781975
-0.012169303372502327 -0.018212642520666122 -0.01732550747692585
-0.008382363244891167 -0.0125450873747468 -0.020781753584742546
-0.006103776395320892 -0.009134942665696144 -0.022910097613930702
-0.02734302543103695 -0.027343017980456352 0.006475877016782761
-0.02575656957924366 -0.02575657144188881 -0.0005403375253081322
-0.023180294781923294 -0.023180289193987846 -0.0070065222680568695
-0.019713226705789566 -0.019713224843144417 -0.012674180790781975
-0.015488582663238049 -0.015488579869270325 -0.01732550747692585
-0.010668721981346607 -0.010668719187378883 -0.020781753584742546
-0.007768632378429174 -0.0077686314471066 -0.022910097613930702
-0.03215199336409569 -0.021483268588781357 0.006475877016782761
-0.030286520719528198 -0.020236805081367493 -0.0005403375253081322
-0.027257146313786507 -0.018212635070085526 -0.0070065222680568695
-0.023180300369858742 -0.015488581731915474 -0.012674180790781975
-0.01821264624595642 -0.01216929778456688 -0.01732550747692585
-0.012545088306069374 -0.008382357656955719 -0.020781753584742546
-0.009134944528341293 -0.006103774532675743 -0.022910097613930702
-0.03572538122534752 -0.014797928743064404 0.006475877016782761
-0.03365258127450943 -0.013939358294010162 -0.0005403375253081322
-0.030286509543657303 -0.012545078992843628 -0.0070065222680568695
-0.02575657144188881 -0.010668719187378883 -0.012674180790781975
-0.020236805081367493 -0.008382358588278294 -0.01732550747692585
-0.013939355500042439 -0.005773868877440691 -0.020781753584742546
-0.010150205343961716 -0.004204354714602232 -0.022910097613930702
-0.03792586177587509 -0.007543915882706642 0.006475877016782761
-0.035725388675928116 -0.007106225937604904 -0.0005403375253081322
-0.03215198591351509 -0.006395424250513315 -0.0070065222680568695
-0.027343031018972397 -0.005438865162432194 -0.012674180790781975
-0.021483279764652252 -0.004273289814591408 -0.01732550747692585
-0.014797937124967575 -0.0029434929601848125 -0.020781753584742546
-0.010775402188301086 -0.002143362769857049 -0.022910097613930702
-0.03866886347532272 5.496857635733932e-09 0.006475877016782761
-0.03642528876662254 -3.315663299474636e-09 -0.0005403375253081322
-0.03278188034892082 3.734341280647868e-09 -0.0070065222680568695
-0.027878709137439728 1.9717987242984236e-09 -0.012674180790781975
-0.02190415933728218 -9.65677204867177e-10 -0.01732550747692585
-0.015087845735251904 -6.719089729045891e-10 -0.020781753584742546
-0.010986503213644028 -3.227367928460012e-09 -0.022910097613930702
-0.037925850600004196 0.0075439270585775375 0.006475877016782761
-0.035725388675928116 0.007106218487024307 -0.0005403375253081322
-0.03215198218822479 0.006395431235432625 -0.0070065222680568695
-0.0273430272936821 0.00543886749073863 -0.012674180790781975
-0.021483277902007103 0.0042732879519462585 -0.01732550747692585
-0.014797937124967575 0.002943491330370307 -0.020781753584742546
-0.010775402188301086 0.0021433557849377394 -0.022910097613930702
-0.035725370049476624 0.014797940850257874 0.006475877016782761
-0.03365258127450943 0.01393935177475214 -0.0005403375253081322
-0.030286502093076706 0.012545086443424225 -0.0070065222680568695
-0.02575656585395336 0.010668721981346607 -0.012674180790781975
-0.020236799493432045 0.008382357656955719 -0.01732550747692585
-0.013939352706074715 0.005773867014795542 -0.020781753584742546
-0.010150205343961716 0.004204347264021635 -0.022910097613930702
-0.03215198218822479 0.021483276039361954 0.006475877016782761
-0.0302865169942379 0.020236803218722343 -0.0005403375253081322
-0.02725713513791561 0.018212640658020973 -0.0070065222680568695
-0.023180294781923294 0.015488581731915474 -0.012674180790781975
-0.018212638795375824 0.01216929592192173 -0.01732550747692585
-0.012545083649456501 0.008382356725633144 -0.020781753584742546
-0.009134943597018719 0.0061037675477564335 -0.022910097613930702
-0.027343008667230606 0.027343016117811203 0.006475877016782761
-0.02575656957924366 0.025756563991308212 -0.0005403375253081322
-0.02318028174340725 0.023180292919278145 -0.0070065222680568695
-0.01971322111785412 0.019713224843144417 -0.012674180790781975
-0.015488578006625175 0.015488574281334877 -0.01732550747692585
-0.010668717324733734 0.01066871453076601 -0.020781753584742546
-0.0077686314471066 0.007768623530864716 -0.022910097613930702
-0.02148326113820076 0.03215198218822479 0.006475877016782761
-0.020236805081367493 0.0302865169942379 -0.0005403375253081322
-0.018212631344795227 0.02725713700056076 -0.0070065222680568695
-0.015488579869270325 0.023180298507213593 -0.012674180790781975
-0.012169296853244305 0.018212636932730675 -0.01732550747692585
-0.008382359519600868 0.012545080855488777 -0.020781753584742546
-0.006103775463998318 0.009134938009083271 -0.022910097613930702
-0.014797925017774105 0.03572536259889603 0.006475877016782761
-0.013939356431365013 0.03365257754921913 -0.0005403375253081322
-0.012545074336230755 0.030286505818367004 -0.0070065222680568695
-0.010668717324733734 0.02575656771659851 -0.012674180790781975
-0.008382357656955719 0.020236795768141747 -0.01732550747692585
-0.005773868877440691 0.013939347118139267 -0.020781753584742546
-0.004204354714602232 0.010150198824703693 -0.022910097613930702
-0.0075439149513840675 0.0379258394241333 0.006475877016782761
-0.007106222212314606 0.03572538122534752 -0.0005403375253081322
-0.006395420525223017 0.03215198218822479 -0.0070065222680568695
-0.0054388646967709064 0.0273430235683918 -0.012674180790781975
-0.004273287486284971 0.021483266726136208 -0.01732550747692585
-0.0029434929601848125 0.014797931537032127 -0.020781753584742546
-0.0021433632355183363 0.010775393806397915 -0.022910097613930702
-1.4955955363049611e-09 0.036425281316041946 -0.0005403375253081322
6.729381940573376e-09 0.032781876623630524 -0.0070065222680568695
2.0293036140373033e-09 0.02787870354950428 -0.012674180790781975
-9.080591278909367e-10 0.015087838284671307 -0.020781753584742546
-3.829624617424088e-09 0.010986494831740856 -0.022910097613930702
0.0014950764598324895 0.007516277953982353 -0.057837311178445816
0.002932702424004674 0.0070801787078380585 -0.057837311178445816
0.004257626365870237 0.006371992640197277 -0.057837311178445816
0.005418930668383837 0.005418934393674135 -0.057837311178445816
0.006371989380568266 0.004257628694176674 -0.057837311178445816
0.007080175448209047 0.002932705217972398 -0.057837311178445816
0.007516274694353342 0.0014950791373848915 -0.057837311178445816
0.00766352703794837 -1.6857696349958928e-09 -0.057837311178445816
0.007516274694353342 -0.0014950826298445463 -0.057837311178445816
0.00708017498254776 -0.0029327087104320526 -0.057837311178445816
0.006371988449245691 -0.004257632419466972 -0.057837311178445816
0.005418929271399975 -0.005418936721980572 -0.057837311178445816
0.004257624968886375 -0.006371994968503714 -0.057837311178445816
0.0029327021911740303 -0.007080180570483208 -0.057837311178445816
0.001495076110586524 -0.007516278885304928 -0.057837311178445816
-4.428879041284972e-09 -0.007663531228899956 -0.057837311178445816
-0.0014950849581509829 -0.007516277953982353 -0.057837311178445816
-0.0029327096417546272 -0.007080179173499346 -0.057837311178445816
-0.004257632419466972 -0.006371992640197277 -0.057837311178445816
-0.0054189362563192844 -0.005418934393674135 -0.057837311178445816
-0.006371994968503714 -0.0042576296254992485 -0.057837311178445816
-0.007080179639160633 -0.0029327066149562597 -0.057837311178445816
-0.007516278885304928 -0.0014950818149372935 -0.057837311178445816
-0.00766353216022253 -1.9784431870562003e-09 -0.057837311178445816
-0.007516278885304928 0.0014950778568163514 -0.057837311178445816
-0.007080179639160633 0.002932702424004674 -0.057837311178445816
-0.006371994037181139 0.004257624503225088 -0.057837311178445816
-0.005418935790657997 0.005418929271399975 -0.057837311178445816
-0.004257631488144398 0.006371987983584404 -0.057837311178445816
-0.0029327087104320526 0.007080173119902611 -0.057837311178445816
-0.0014950840268284082 0.007516271900385618 -0.057837311178445816
-3.989868435638755e-09 0.007663525175303221 -0.057837311178445816
0.006657939869910479 0.03347167745232582 -0.06503714621067047
0.013060011900961399 0.03152963146567345 -0.06503714621067047
0.018960196524858475 0.02837592363357544 -0.06503714621067047
0.02413175068795681 0.024131732061505318 -0.06503714621067047
0.028375931084156036 0.01896017976105213 -0.06503714621067047
0.03152964636683464 0.013059996999800205 -0.06503714621067047
0.03347169607877731 0.006657923571765423 -0.06503714621067047
0.03412744030356407 -9.016454249888284e-09 -0.06503714621067047
0.03347169607877731 -0.006657940335571766 -0.06503714621067047
0.03152964264154434 -0.013060011900961399 -0.06503714621067047
0.028375927358865738 -0.018960194662213326 -0.06503714621067047
0.024131743237376213 -0.02413174696266651 -0.06503714621067047
0.018960189074277878 -0.02837592549622059 -0.06503714621067047
0.013060009106993675 -0.03152964264154434 -0.06503714621067047
0.006657937541604042 -0.033471688628196716 -0.06503714621067047
7.3478485518307934e-09 -0.034127432852983475 -0.06503714621067047
-0.006657922640442848 -0.03347168117761612 -0.06503714621067047
-0.013059990480542183 -0.031529635190963745 -0.06503714621067047
-0.018960168585181236 -0.028375916182994843 -0.06503714621067047
-0.024131719022989273 -0.024131733924150467 -0.06503714621067047
-0.02837590128183365 -0.01896018162369728 -0.06503714621067047
-0.031529612839221954 -0.013060001656413078 -0.06503714621067047
-0.03347165510058403 -0.006657937541604042 -0.06503714621067047
-0.03412740305066109 -1.0319798349200937e-08 -0.06503714621067047
-0.03347165510058403 0.006657917518168688 -0.06503714621067047
-0.031529612839221954 0.013059984892606735 -0.06503714621067047
-0.0283758956938982 0.01896016113460064 -0.06503714621067047
-0.024131715297698975 0.024131713435053825 -0.06503714621067047
-0.018960166722536087 0.028375893831253052 -0.06503714621067047
-0.013059986755251884 0.031529609113931656 -0.06503714621067047
-0.006657919380813837 0.03347165137529373 -0.06503714621067047
9.302851822212688e-09 0.03412739932537079 -0.06503714621067047
-0.003988404758274555 -4.344077986218053e-09 -0.026221221312880516
-0.0034128136467188597 -4.371085271515085e-09 -0.03318019211292267
-0.0034128136467188597 -4.371085271515085e-09 -0.040955059230327606
-0.0037470473907887936 -4.357295857460031e-09 -0.05087834224104881
-0.0036750484723597765 -0.0007310224464163184 -0.05087834224104881
-0.0033472368959337473 -0.0006658165366388857 -0.040955059230327606
-0.0033472368959337473 -0.0006658165366388857 -0.03318019211292267
-0.003911767620593309 -0.0007781090098433197 -0.026221221312880516
-0.002215826651081443 -0.003316265530884266 -0.026221221312880516
-0.0018960448214784265 -0.002837678650394082 -0.03318019211292267
-0.0018960448214784265 -0.002837678650394082 -0.040955059230327606
-0.002081735525280237 -0.00311558460816741 -0.05087834224104881
-0.0014339161571115255 -0.003461852204054594 -0.05087834224104881
-0.0013060100609436631 -0.0031530598644167185 -0.040955059230327606
-0.0013060100609436631 -0.0031530598644167185 -0.03318019211292267
-0.0015262794913724065 -0.0036848371382802725 -0.026221221312880516
0.0015263360692188144 -0.003684838069602847 -0.026221221312880516
0.0013060667552053928 -0.003153060795739293 -0.03318019211292267
0.0013060667552053928 -0.003153060795739293 -0.040955059230327606
0.0014339727349579334 -0.0034618531353771687 -0.05087834224104881
0.0020817925687879324 -0.0031155855394899845 -0.05087834224104881
0.0018961020978167653 -0.0028376798145473003 -0.040955059230327606
0.0018961020978167653 -0.0028376798145473003 -0.03318019211292267
0.0022158834617584944 -0.0033162664622068405 -0.026221221312880516
0.0028202771209180355 -0.00282025383785367 -0.026221221312880516
0.0024132721591740847 -0.0024132488761097193 -0.03318019211292267
0.0024132721591740847 -0.0024132488761097193 -0.040955059230327606
0.002649611560627818 -0.0026495882775634527 -0.05087834224104881
0.0031156090553849936 -0.0020817688200622797 -0.05087834224104881
0.002837703563272953 -0.0018960783490911126 -0.040955059230327606
0.002837703563272953 -0.0018960783490911126 -0.03318019211292267
0.003316290210932493 -0.0022158597130328417 -0.026221221312880516
0.0039118267595767975 0.0007781009189784527 -0.026221221312880516
0.003347294870764017 0.0006658085621893406 -0.03318019211292267
0.003347294870764017 0.0006658085621893406 -0.040955059230327606
0.00367510668002069 0.0007310144719667733 -0.05087834224104881
0.003461876418441534 0.0014339406043291092 -0.05087834224104881
0.003153084544464946 0.0013060345081612468 -0.040955059230327606
0.003153084544464946 0.0013060345081612468 -0.03318019211292267
0.0036848620511591434 0.0015263039385899901 -0.026221221312880516
-0.0036848036106675863 -0.0015263111563399434 -0.026221221312880516
-0.0031530261039733887 -0.0013060419587418437 -0.03318019211292267
-0.0031530261039733887 -0.0013060419587418437 -0.040955059230327606
-0.003461817977949977 -0.0014339478220790625 -0.05087834224104881
-0.0031155517790466547 -0.002081767888739705 -0.05087834224104881
-0.0028376460541039705 -0.0018960776505991817 -0.040955059230327606
-0.0028376460541039705 -0.0018960776505991817 -0.03318019211292267
-0.003316233167424798 -0.002215858781710267 -0.026221221312880516
-0.0007780768210068345 -0.00391180207952857 -0.026221221312880516
-0.0006657843478024006 -0.003347269957885146 -0.03318019211292267
-0.0006657843478024006 -0.003347269957885146 -0.040955059230327606
-0.0007309902575798333 -0.0036750829312950373 -0.05087834224104881
2.8109090166594797e-08 -0.0037470811512321234 -0.05087834224104881
2.815579058790263e-08 -0.003412846243008971 -0.040955059230327606
2.815579058790263e-08 -0.003412846243008971 -0.03318019211292267
2.8069409907516274e-08 -0.003988438751548529 -0.026221221312880516
0.0033162913750857115 0.002215852029621601 -0.026221221312880516
0.0028377040289342403 0.0018960703164339066 -0.03318019211292267
0.0028377040289342403 0.0018960703164339066 -0.040955059230327606
0.0031156097538769245 0.0020817613694816828 -0.05087834224104881
0.0026496120262891054 0.0026495803613215685 -0.05087834224104881
0.0024132730904966593 0.0024132407270371914 -0.040955059230327606
0.0024132730904966593 0.0024132407270371914 -0.03318019211292267
0.0028202778194099665 0.0028202456887811422 -0.026221221312880516
0.002215884393081069 0.0033162583131343126 -0.026221221312880516
0.0018961031455546618 0.002837671199813485 -0.03318019211292267
0.0018961031455546618 0.002837671199813485 -0.040955059230327606
0.002081793500110507 0.0031155769247561693 -0.05087834224104881
0.0014339727349579334 0.003461844054982066 -0.05087834224104881
0.0013060667552053928 0.0031530517153441906 -0.040955059230327606
0.0013060667552053928 0.0031530517153441906 -0.03318019211292267
0.0015263360692188144 0.0036848292220383883 -0.026221221312880516
0.0007781329331919551 -0.00391180207952857 -0.026221221312880516
0.0006658406928181648 -0.003347269957885146 -0.03318019211292267
0.0006658406928181648 -0.003347269957885146 -0.040955059230327606
0.0007310464861802757 -0.0036750829312950373 -0.05087834224104881
0.0036848606541752815 -0.0015263125533238053 -0.026221221312880516
0.003153083147481084 -0.001306043122895062 -0.03318019211292267
0.003153083147481084 -0.001306043122895062 -0.040955059230327606
0.0034618754871189594 -0.001433948869816959 -0.05087834224104881
0.00367510668002069 -0.0007310228538699448 -0.05087834224104881
0.003347294870764017 -0.000665817002300173 -0.040955059230327606
0.003347294870764017 -0.000665817002300173 -0.03318019211292267
0.0039118267595767975 -0.0007781092426739633 -0.026221221312880516
0.003988462965935469 -4.19176204857763e-09 -0.026221221312880516
0.0034128716215491295 -4.2407499734054e-09 -0.03318019211292267
0.0034128716215491295 -4.2407499734054e-09 -0.040955059230327606
0.0037471058312803507 -4.2142014322621435e-09 -0.05087834224104881
2.8297861831561022e-08 0.003988427575677633 -0.026221221312880516
2.8351317737929094e-08 0.0034128364641219378 -0.03318019211292267
2.8351317737929094e-08 0.0034128364641219378 -0.040955059230327606
2.8323711376287974e-08 0.003747070673853159 -0.05087834224104881
-0.000730989733710885 0.003675071056932211 -0.05087834224104881
-0.0006657838239334524 0.0033472590148448944 -0.040955059230327606
-0.0006657838239334524 0.0033472590148448944 -0.03318019211292267
-0.0007780762389302254 0.003911791369318962 -0.026221221312880516
-0.0014339154586195946 0.0034618410281836987 -0.05087834224104881
-0.001306009478867054 0.0031530489213764668 -0.040955059230327606
-0.001306009478867054 0.0031530489213764668 -0.03318019211292267
-0.0015262787928804755 0.0036848257295787334 -0.026221221312880516
-0.0022158257197588682 0.003316255519166589 -0.026221221312880516
-0.0018960443558171391 0.0028376688715070486 -0.03318019211292267
-0.0018960443558171391 0.0028376688715070486 -0.040955059230327606
-0.0020817348267883062 0.003115574363619089 -0.05087834224104881
-0.002649553818628192 0.0026495775673538446 -0.05087834224104881
-0.002413214650005102 0.002413238165900111 -0.040955059230327606
-0.002413214650005102 0.002413238165900111 -0.03318019211292267
-0.0028202193789184093 0.0028202428948134184 -0.026221221312880516
-0.003316232468932867 0.0022158499341458082 -0.026221221312880516
-0.0028376455884426832 0.0018960681045427918 -0.03318019211292267
-0.0028376455884426832 0.0018960681045427918 -0.040955059230327606
-0.0031155510805547237 0.0020817590411752462 -0.05087834224104881
-0.003461817977949977 0.0014339392073452473 -0.05087834224104881
-0.0031530261039733887 0.0013060333440080285 -0.040955059230327606
-0.0031530261039733887 0.0013060333440080285 -0.03318019211292267
-0.0036848036106675863 0.0015263027744367719 -0.026221221312880516
0.0007310468354262412 0.0036750745493918657 -0.05087834224104881
0.0006658409256488085 0.0033472625073045492 -0.040955059230327606
0.0006658409256488085 0.0033472625073045492 -0.03318019211292267
0.0007781332242302597 0.003911793697625399 -0.026221221312880516
-0.003911767620593309 0.0007781001622788608 -0.026221221312880516
-0.0033472368959337473 0.0006658078054897487 -0.03318019211292267
-0.0033472368959337473 0.0006658078054897487 -0.040955059230327606
-0.0036750484723597765 0.0007310137152671814 -0.05087834224104881
-0.0028202200774103403 -0.002820252440869808 -0.026221221312880516
-0.002413215348497033 -0.002413247711956501 -0.03318019211292267
-0.002413215348497033 -0.002413247711956501 -0.040955059230327606
-0.002649554517120123 -0.002649587346240878 -0.05087834224104881
-4.025576316735169e-09 0.03882808983325958 0.006475877016782761
0.014858859591186047 0.03587246686220169 0.006475877016782761
0.02745559811592102 0.02745559811592102 0.006475877016782761
0.035872459411621094 0.014858855865895748 0.006475877016782761
0.03882806375622749 -6.2776797093988534e-09 0.006475877016782761
0.035872455686330795 -0.01485886424779892 0.006475877016782761
0.027455588802695274 -0.027455594390630722 0.006475877016782761
0.014858849346637726 -0.035872455686330795 0.006475877016782761
-7.4081394352276675e-09 -0.03882806748151779 0.006475877016782761
-0.014858863316476345 -0.0358724519610405 0.006475877016782761
-0.027455592527985573 -0.027455581352114677 0.006475877016782761
-0.0358724482357502 -0.014858849346637726 0.006475877016782761
-0.038828060030937195 5.520699897232362e-09 0.006475877016782761
-0.0358724370598793 0.014858857728540897 0.006475877016782761
-0.02745557576417923 0.027455581352114677 0.006475877016782761
-0.014858845621347427 0.0358724370598793 0.006475877016782761
-4.297536548847347e-09 0.04018775001168251 0.0434919074177742
0.007840237580239773 0.039415549486875534 0.0434919074177742
0.015379181131720543 0.03712863475084305 0.0434919074177742
0.022327112033963203 0.033414892852306366 0.0434919074177742
0.02841702476143837 0.02841702476143837 0.0434919074177742
0.03341488167643547 0.022327106446027756 0.0434919074177742
0.03712862730026245 0.01537917461246252 0.0434919074177742
0.03941554203629494 0.0078402329236269 0.0434919074177742
0.040187738835811615 -6.4526615162208145e-09 0.0434919074177742
0.03941553458571434 -0.00784024503082037 0.0434919074177742
0.037128619849681854 -0.01537918671965599 0.0434919074177742
0.033414870500564575 -0.022327113896608353 0.0434919074177742
0.028417013585567474 -0.02841702662408352 0.0434919074177742
0.022327102720737457 -0.033414874225854874 0.0434919074177742
0.015379170887172222 -0.03712863102555275 0.0434919074177742
0.007840229198336601 -0.03941553831100464 0.0434919074177742
-7.798607093434384e-09 -0.040187735110521317 0.0434919074177742
-0.00784024503082037 -0.03941553086042404 0.0434919074177742
-0.015379184857010841 -0.03712862357497215 0.0434919074177742
-0.022327112033963203 -0.03341486677527428 0.0434919074177742
-0.02841702103614807 -0.028417009860277176 0.0434919074177742
-0.033414874225854874 -0.02232709899544716 0.0434919074177742
-0.037128616124391556 -0.015379169024527073 0.0434919074177742
-0.03941552713513374 -0.00784023106098175 0.0434919074177742
-0.040187716484069824 5.758911125752775e-09 0.0434919074177742
-0.039415523409843445 0.007840239442884922 0.0434919074177742
-0.03712860867381096 0.015379179269075394 0.0434919074177742
-0.03341486304998398 0.022327102720737457 0.0434919074177742
-0.028417004272341728 0.028417007997632027 0.0434919074177742
-0.02232709340751171 0.03341486677527428 0.0434919074177742
-0.015379163436591625 0.03712860867381096 0.0434919074177742
-0.007840228267014027 0.03941551595926285 0.0434919074177742
-4.321950797248064e-09 0.040388479828834534 0.0434919074177742
0.007879397831857204 0.03961242735385895 0.0434919074177742
0.015455999411642551 0.03731408715248108 0.0434919074177742
0.02243863418698311 0.03358179330825806 0.0434919074177742
0.028558967635035515 0.028558965772390366 0.0434919074177742
0.03358179330825806 0.02243863046169281 0.0434919074177742
0.03731408342719078 0.015455993823707104 0.0434919074177742
0.03961241990327835 0.007879395969212055 0.0434919074177742
0.04038847237825394 -6.479681680104932e-09 0.0434919074177742
0.039612412452697754 -0.007879405282437801 0.0434919074177742
0.037314075976610184 -0.015456002205610275 0.0434919074177742
0.03358177840709686 -0.022438636049628258 0.0434919074177742
0.02855895645916462 -0.028558963909745216 0.0434919074177742
0.022438623011112213 -0.03358178958296776 0.0434919074177742
0.015455987304449081 -0.03731408342719078 0.0434919074177742
0.007879390381276608 -0.039612412452697754 0.0434919074177742
-7.840467830533271e-09 -0.04038846492767334 0.0434919074177742
-0.007879405282437801 -0.039612408727407455 0.0434919074177742
-0.015456002205610275 -0.037314072251319885 0.0434919074177742
-0.022438636049628258 -0.03358177840709686 0.0434919074177742
-0.028558962047100067 -0.028558950871229172 0.0434919074177742
-0.03358178213238716 -0.022438619285821915 0.0434919074177742
-0.037314072251319885 -0.015455987304449081 0.0434919074177742
-0.03961240127682686 -0.007879390381276608 0.0434919074177742
-0.040388453751802444 5.792800017445643e-09 0.0434919074177742
-0.03961239755153656 0.007879402488470078 0.0434919074177742
-0.03731405735015869 0.015455995686352253 0.0434919074177742
-0.03358176350593567 0.022438624873757362 0.0434919074177742
-0.028558945283293724 0.028558949008584023 0.0434919074177742
-0.022438615560531616 0.03358176723122597 0.0434919074177742
-0.015455981716513634 0.03731405735015869 0.0434919074177742
-0.007879388518631458 0.03961239010095596 0.0434919074177742
-3.4162630502265756e-09 0.032256245613098145 0.11383311450481415
0.006292877718806267 0.03163644298911095 0.11383311450481415
0.01234392635524273 0.02980087697505951 0.11383311450481415
0.01792060397565365 0.02682008221745491 0.11383311450481415
0.022808602079749107 0.022808602079749107 0.11383311450481415
0.026820076629519463 0.0179206021130085 0.11383311450481415
0.029800869524478912 0.012343923561275005 0.11383311450481415
0.03163643553853035 0.00629287539049983 0.11383311450481415
0.03225622698664665 -4.082508997527157e-09 0.11383311450481415
0.03163642808794975 -0.00629288237541914 0.11383311450481415
0.029800867661833763 -0.012343925423920155 0.11383311450481415
0.026820069178938866 -0.0179206021130085 0.11383311450481415
0.02280859276652336 -0.02280859835445881 0.11383311450481415
0.017920594662427902 -0.026820072904229164 0.11383311450481415
0.012343917973339558 -0.029800867661833763 0.11383311450481415
0.0062928711995482445 -0.03163642808794975 0.11383311450481415
-6.2263301181531006e-09 -0.032256223261356354 0.11383311450481415
-0.006292883772403002 -0.03163642808794975 0.11383311450481415
-0.01234392635524273 -0.029800863936543465 0.11383311450481415
-0.0179206021130085 -0.026820067316293716 0.11383311450481415
-0.02280859835445881 -0.022808589041233063 0.11383311450481415
-0.026820069178938866 -0.017920587211847305 0.11383311450481415
-0.029800863936543465 -0.01234391424804926 0.11383311450481415
-0.031636424362659454 -0.00629287026822567 0.11383311450481415
-0.032256219536066055 5.718928886011554e-09 0.11383311450481415
-0.03163641691207886 0.006292881444096565 0.11383311450481415
-0.029800856485962868 0.012343925423920155 0.11383311450481415
-0.02682005986571312 0.01792059652507305 0.11383311450481415
-0.022808581590652466 0.022808589041233063 0.11383311450481415
-0.017920583486557007 0.026820065453648567 0.11383311450481415
-0.012343913316726685 0.029800856485962868 0.11383311450481415
-0.0062928698025643826 0.03163641691207886 0.11383311450481415
0.007963800802826881 0.04003676399588585 0.02999497763812542
0.015621565282344818 0.037713803350925446 0.02999497763812542
-0.028864869847893715 0.028864877298474312 0.02999497763812542
-0.022678980603814125 0.033941496163606644 0.02999497763812542
0.007963793352246284 -0.04003674536943436 0.02999497763812542
-9.610509721369453e-09 -0.04082111269235611 0.02999497763812542
0.022678997367620468 0.033941514790058136 0.02999497763812542
-0.015621551312506199 0.03771377354860306 0.02999497763812542
-0.007963812910020351 -0.04003674164414406 0.02999497763812542
0.028864892199635506 0.028864894062280655 0.02999497763812542
-0.007963795214891434 0.040036723017692566 0.02999497763812542
-0.01562157180160284 -0.03771378844976425 0.02999497763812542
0.033941518515348434 0.02267899364233017 0.02999497763812542
-6.0542686419751135e-09 0.0408211275935173 0.02999497763812542
-0.022678999230265617 -0.03394150733947754 0.02999497763812542
0.03771378844976425 0.01562155969440937 0.02999497763812542
-0.028864886611700058 -0.028864877298474312 0.02999497763812542
0.040036752820014954 0.007963798940181732 0.02999497763812542
-0.033941514790058136 -0.022678988054394722 0.02999497763812542
0.04082110896706581 -7.420871916963279e-09 0.02999497763812542
-0.037713780999183655 -0.015621553175151348 0.02999497763812542
0.04003673791885376 -0.007963810116052628 0.02999497763812542
-0.04003673791885376 -0.007963796146214008 0.02999497763812542
0.037713780999183655 -0.015621567144989967 0.02999497763812542
-0.040821101516485214 4.9831254678167625e-09 0.02999497763812542
0.03394150733947754 -0.022678997367620468 0.02999497763812542
-0.04003673419356346 0.007963807322084904 0.02999497763812542
0.02886487916111946 -0.028864894062280655 0.02999497763812542
-0.03771376609802246 0.015621563419699669 0.02999497763812542
0.02267898991703987 -0.033941518515348434 0.02999497763812542
-0.03394149988889694 0.02267898991703987 0.02999497763812542
0.015621555037796497 -0.03771379217505455 0.02999497763812542
0.015353010967373848 0.037065453827381134 0.01956287771463394
0.015230431221425533 0.03676951676607132 0.016188643872737885
-0.022289101034402847 0.033358003944158554 0.01956287771463394
-0.021841423586010933 0.03268800303339958 0.00985010713338852
-7.757969378019425e-09 -0.040119342505931854 0.01956287771463394
-7.667387613707888e-09 -0.039799027144908905 0.016188643872737885
0.022289123386144638 0.033358026295900345 0.01956287771463394
0.021841440349817276 0.03268802911043167 0.00985010713338852
-0.01535299513489008 0.037065427750349045 0.01956287771463394
-0.015230415388941765 0.03676948696374893 0.016188643872737885
-0.007826903834939003 -0.039348457008600235 0.01956287771463394
-0.007669699378311634 -0.038558147847652435 0.00985010713338852
0.028368670493364334 0.028368668630719185 0.01956287771463394
0.02814216911792755 0.02814216911792755 0.016188643872737885
-0.007826886139810085 0.03934844210743904 0.01956287771463394
-0.007669683545827866 0.03855812922120094 0.00985010713338852
-0.015353016555309296 -0.03706543520092964 0.01956287771463394
-0.015230434015393257 -0.036769505590200424 0.016188643872737885
0.033358026295900345 0.02228911779820919 0.01956287771463394
0.03268802911043167 0.021841442212462425 0.00985010713338852
-4.262856734271736e-09 0.040119364857673645 0.01956287771463394
-4.200305436796725e-09 0.039799049496650696 0.016188643872737885
-0.02228911966085434 -0.03335801139473915 0.01956287771463394
-0.021841442212462425 -0.03268801420927048 0.00985010713338852
0.03706544637680054 0.015353006310760975 0.01956287771463394
0.03676951304078102 0.015230427496135235 0.016188643872737885
-0.028368663042783737 -0.02836865745484829 0.01956287771463394
-0.028142163529992104 -0.028142154216766357 0.016188643872737885
0.03934847190976143 0.007826892659068108 0.01956287771463394
0.03855816274881363 0.007669689133763313 0.00985010713338852
-0.03335801884531975 -0.022289104759693146 0.01956287771463394
-0.032688017934560776 -0.02184142917394638 0.00985010713338852
0.04011935368180275 -6.465187496473845e-09 0.01956287771463394
0.039799030870199203 -6.419577314176195e-09 0.016188643872737885
-0.03706544637680054 -0.015353000722825527 0.01956287771463394
-0.036769501864910126 -0.015230419114232063 0.016188643872737885
0.03934846445918083 -0.007826902903616428 0.01956287771463394
0.03855815529823303 -0.0076696984469890594 0.00985010713338852
-0.039348457008600235 -0.00782688893377781 0.01956287771463394
-0.03855814412236214 -0.007669683545827866 0.00985010713338852
0.03706543892621994 -0.015353016555309296 0.01956287771463394
0.036769505590200424 -0.015230433084070683 0.016188643872737885
-0.040119338780641556 5.725554252933307e-09 0.01956287771463394
-0.03979902341961861 5.673813863182886e-09 0.016188643872737885
0.03335801512002945 -0.02228911966085434 0.01956287771463394
0.03268801420927048 -0.021841444075107574 0.00985010713338852
-0.039348453283309937 0.007826900109648705 0.01956287771463394
-0.03855814039707184 0.00766969658434391 0.00985010713338852
0.028368663042783737 -0.028368668630719185 0.01956287771463394
0.028142159804701805 -0.02814216911792755 0.016188643872737885
-0.03706543147563934 0.015353009104728699 0.01956287771463394
-0.03676949068903923 0.015230429358780384 0.016188643872737885
0.022289114072918892 -0.033358026295900345 0.01956287771463394
0.02184142917394638 -0.032688021659851074 0.00985010713338852
-0.033358003944158554 0.022289112210273743 0.01956287771463394
-0.03268800303339958 0.02184143476188183 0.00985010713338852
0.015353000722825527 -0.03706544637680054 0.01956287771463394
0.015230420045554638 -0.03676951304078102 0.016188643872737885
0.007669693324714899 0.03855816647410393 0.00985010713338852
0.007826896384358406 0.03934848681092262 0.01956287771463394
-0.02814214676618576 0.028142152354121208 0.016188643872737885
-0.028368650004267693 0.02836865745484829 0.01956287771463394
0.0076696863397955894 -0.038558151572942734 0.00985010713338852
0.007826888002455235 -0.03934846073389053 0.01956287771463394
0.007907279767096043 0.039752598851919174 0.034493956714868546
0.007893338799476624 0.03968251496553421 0.03899293392896652
-0.028659997507929802 0.02866000309586525 0.034493956714868546
-0.028609471395611763 0.02860947884619236 0.03899293392896652
0.007907272316515446 -0.03975258022546768 0.034493956714868546
0.007893331348896027 -0.03968249633908272 0.03899293392896652
0.015483343973755836 0.03738010302186012 0.03899293392896652
0.01551069039851427 0.037446122616529465 0.034493956714868546
-0.022478314116597176 0.033641185611486435 0.03899293392896652
-0.022518012672662735 0.033700596541166306 0.034493956714868546
-7.85605180908533e-09 -0.040459923446178436 0.03899293392896652
-7.871530094405443e-09 -0.040531378239393234 0.034493956714868546
0.022478336468338966 0.03364120423793793 0.03899293392896652
0.022518035024404526 0.033700622618198395 0.034493956714868546
-0.015483330003917217 0.03738007694482803 0.03899293392896652
-0.015510670840740204 0.03744609281420708 0.034493956714868546
-0.00789334811270237 -0.03968249633908272 0.03899293392896652
-0.007907289080321789 -0.03975258022546768 0.034493956714868546
0.028609493747353554 0.028609491884708405 0.03899293392896652
0.028660021722316742 0.028660019859671593 0.034493956714868546
-0.007893329486250877 0.03968247398734093 0.03899293392896652
-0.007907270453870296 0.03975255414843559 0.034493956714868546
-0.015483347699046135 -0.037380095571279526 0.03899293392896652
-0.015510695986449718 -0.03744611144065857 0.034493956714868546
0.03364120423793793 0.02247833088040352 0.03899293392896652
0.033700618892908096 0.022518029436469078 0.034493956714868546
-4.331259351175731e-09 0.04045994207262993 0.03899293392896652
-4.340567461014189e-09 0.040531404316425323 0.034493956714868546
-0.022478332743048668 -0.03364119306206703 0.03899293392896652
-0.022518031299114227 -0.0337006039917469 0.034493956714868546
0.03738010302186012 0.015483338385820389 0.03899293392896652
0.037446118891239166 0.015510684810578823 0.034493956714868546
-0.028609490022063255 -0.02860947884619236 0.03899293392896652
-0.028660017997026443 -0.0286600049585104 0.034493956714868546
0.039682503789663315 0.0078933360055089 0.03899293392896652
0.03975258767604828 0.007907276973128319 0.034493956714868546
-0.03364120051264763 -0.022478319704532623 0.03899293392896652
-0.0337006114423275 -0.022518018260598183 0.034493956714868546
0.040459927171468735 -6.498378279928829e-09 0.03899293392896652
0.040531378239393234 -6.5171938956609665e-09 0.034493956714868546
-0.03738008812069893 -0.015483330003917217 0.03899293392896652
-0.03744611144065857 -0.0155106782913208 0.034493956714868546
0.03968249633908272 -0.00789334625005722 0.03899293392896652
0.03975258022546768 -0.00790728535503149 0.034493956714868546
-0.03968249261379242 -0.007893331348896027 0.03899293392896652
-0.03975258022546768 -0.007907271385192871 0.034493956714868546
0.03738009184598923 -0.01548334863036871 0.03899293392896652
0.03744611516594887 -0.015510695986449718 0.034493956714868546
-0.04045991599559784 5.795838475819437e-09 0.03899293392896652
-0.04053136333823204 5.798743707430276e-09 0.034493956714868546
0.03364119306206703 -0.022478332743048668 0.03899293392896652
0.0337006077170372 -0.022518031299114227 0.034493956714868546
-0.03968248516321182 0.007893344387412071 0.03899293392896652
-0.039752572774887085 0.007907283492386341 0.034493956714868546
0.02860948070883751 -0.028609493747353554 0.03899293392896652
0.028660008683800697 -0.028660019859671593 0.034493956714868546
-0.03738007694482803 0.015483340248465538 0.03899293392896652
-0.037446100264787674 0.015510686673223972 0.034493956714868546
0.02247832529246807 -0.03364120051264763 0.03899293392896652
0.02251802571117878 -0.033700618892908096 0.034493956714868546
-0.033641181886196136 0.022478323429822922 0.03899293392896652
-0.03370059281587601 0.02251802571117878 0.034493956714868546
0.015483333729207516 -0.037380099296569824 0.03899293392896652
0.0155106782913208 -0.03744611144065857 0.034493956714868546
0.00779696274548769 0.03919803351163864 -0.06503714621067047
0.015294304117560387 0.036923740059137344 -0.06503714621067047
0.022203892469406128 0.0332304947078228 -0.06503714621067047
0.02826019749045372 0.028260206803679466 -0.06503714621067047
0.03323047235608101 0.022203903645277023 -0.06503714621067047
0.03692372888326645 0.015294314362108707 -0.06503714621067047
0.039198022335767746 0.0077969725243747234 -0.06503714621067047
0.039965953677892685 -1.0172090947335732e-09 -0.06503714621067047
0.039198022335767746 -0.007796973455697298 -0.06503714621067047
0.03692372515797615 -0.015294312499463558 -0.06503714621067047
0.03323046863079071 -0.022203899919986725 -0.06503714621067047
0.028260190039873123 -0.028260203078389168 -0.06503714621067047
0.02220388501882553 -0.03323047608137131 -0.06503714621067047
0.015294300392270088 -0.03692373260855675 -0.06503714621067047
0.007796960417181253 -0.039198026061058044 -0.06503714621067047
-1.0478648171385885e-08 -0.03996595740318298 -0.06503714621067047
-0.007796981371939182 -0.03919801861047745 -0.06503714621067047
-0.015294316224753857 -0.03692372515797615 -0.06503714621067047
-0.022203898057341576 -0.03323046490550041 -0.06503714621067047
-0.02826019935309887 -0.028260190039873123 -0.06503714621067047
-0.03323047608137131 -0.02220388688147068 -0.06503714621067047
-0.03692372515797615 -0.015294300392270088 -0.06503714621067047
-0.03919801861047745 -0.007796969730407 -0.06503714621067047
-0.039965949952602386 -2.543526278486752e-09 -0.06503714621067047
-0.03919801861047745 0.007796965539455414 -0.06503714621067047
-0.03692372515797615 0.015294300392270088 -0.06503714621067047
-0.03323046863079071 0.022203881293535233 -0.06503714621067047
-0.02826019562780857 0.028260184451937675 -0.06503714621067047
-0.022203896194696426 0.033230461180210114 -0.06503714621067047
-0.015294312499463558 0.03692371025681496 -0.06503714621067047
-0.007796976715326309 0.039198003709316254 -0.06503714621067047
-8.189174671713317e-09 0.03996593505144119 -0.06503714621067047
0.00779696274548769 0.03919803351163864 -0.06791490316390991
0.015294304117560387 0.036923740059137344 -0.06791490316390991
0.022203892469406128 0.0332304947078228 -0.06791490316390991
0.02826019749045372 0.028260206803679466 -0.06791490316390991
0.03323047235608101 0.022203903645277023 -0.06791490316390991
0.03692372888326645 0.015294314362108707 -0.06791490316390991
0.039198022335767746 0.0077969725243747234 -0.06791490316390991
0.039965953677892685 -1.0172090947335732e-09 -0.06791490316390991
0.039198022335767746 -0.007796973455697298 -0.06791490316390991
0.03692372515797615 -0.015294312499463558 -0.06791490316390991
0.03323046863079071 -0.022203899919986725 -0.06791490316390991
0.028260190039873123 -0.028260203078389168 -0.06791490316390991
0.02220388501882553 -0.03323047608137131 -0.06791490316390991
0.015294300392270088 -0.03692373260855675 -0.06791490316390991
0.007796960417181253 -0.039198026061058044 -0.06791490316390991
-1.0478648171385885e-08 -0.03996595740318298 -0.06791490316390991
-0.007796981371939182 -0.03919801861047745 -0.06791490316390991
-0.015294316224753857 -0.03692372515797615 -0.06791490316390991
-0.022203898057341576 -0.03323046490550041 -0.06791490316390991
-0.02826019935309887 -0.028260190039873123 -0.06791490316390991
-0.03323047608137131 -0.02220388688147068 -0.06791490316390991
-0.03692372515797615 -0.015294300392270088 -0.06791490316390991
-0.03919801861047745 -0.007796969730407 -0.06791490316390991
-0.039965949952602386 -2.543526278486752e-09 -0.06791490316390991
-0.03919801861047745 0.007796965539455414 -0.06791490316390991
-0.03692372515797615 0.015294300392270088 -0.06791490316390991
-0.03323046863079071 0.022203881293535233 -0.06791490316390991
-0.02826019562780857 0.028260184451937675 -0.06791490316390991
-0.022203896194696426 0.033230461180210114 -0.06791490316390991
-0.015294312499463558 0.03692371025681496 -0.06791490316390991
-0.007796976715326309 0.039198003709316254 -0.06791490316390991
