-0.00672962237149477 0.010821853764355183 -0.007533821277320385
-0.0015130736865103245 0.016196565702557564 -0.0021237321197986603
-0.0026709353551268578 0.01379738375544548 -0.005626736208796501
-0.00381173356436193 0.010775583796203136 -0.007932421751320362
-0.004976056050509214 0.0074226888827979565 -0.009602446109056473
-0.006119130179286003 0.0037687590811401606 -0.010572624392807484
0.002684633480384946 0.016112206503748894 -0.002708088606595993
0.0009001034777611494 0.013695381581783295 -0.006114555522799492
-0.0010059904307126999 0.010231071151793003 -0.008315700106322765
-0.0030434210784733295 0.007034646812826395 -0.00986645556986332
-0.005133885890245438 0.0035643575247377157 -0.010707216337323189
0.00846823025494814 0.013975626789033413 -0.003495230572298169
0.0052535030990839005 0.012372713536024094 -0.006702043116092682
0.0015798031818121672 0.009679281152784824 -0.008668933995068073
-0.0012622966896742582 0.006352377124130726 -0.010109767317771912
-0.004225867334753275 0.003216365585103631 -0.010831260122358799
0.011859085410833359 0.01203152071684599 -0.003967267461121082
0.008990807458758354 0.010137997567653656 -0.007206792011857033
0.005355377681553364 0.008256398141384125 -0.009174453094601631
0.00029887747950851917 0.005666703451424837 -0.010323029942810535
-0.0034299998078495264 0.002739635528996587 -0.01093997247517109
0.016400959342718124 0.008415567688643932 -0.004583016969263554
0.011358187533915043 0.008009151555597782 -0.0075301919132471085
0.0076212696731090546 0.00620623305439949 -0.009481238201260567
0.0015800914261490107 0.004454386420547962 -0.010498055256903172
-0.002776841167360544 0.00215398077853024 -0.011029199697077274
0.01862882263958454 0.004645466338843107 -0.004479520954191685
0.014876347035169601 0.005228016525506973 -0.007998848333954811
0.00900339800864458 0.0042908452451229095 -0.009670042432844639
0.002532125683501363 0.0030719011556357145 -0.0106281079351902
-0.002291492186486721 0.0014838023344054818 -0.01109550055116415
0.019662417471408844 0.0023971477057784796 -0.005243042483925819
0.015959607437253 0.001990577206015587 -0.008146824315190315
0.009854520671069622 0.0022012770641595125 -0.009786306880414486
0.0031183811370283365 0.0015696658520027995 -0.010708190500736237
-0.0019926277454942465 0.0007572516915388405 -0.011136326007544994
0.02001146413385868 3.1574495551467407e-06 -0.0055008819326758385
0.01632537506520748 3.1575032153341454e-06 -0.008196793496608734
0.010141893289983273 3.1562649382976815e-06 -0.009825565852224827
0.003316337475553155 3.1567844871460693e-06 -0.01073523424565792
-0.0018917103298008442 3.156833145112614e-06 -0.011150116100907326
0.019662415608763695 -0.0023908307775855064 -0.005243045277893543
0.015959607437253 -0.00198426004499197 -0.008146824315190315
0.009854520671069622 -0.002194964559748769 -0.009786306880414486
0.0031183811370283365 -0.001563353929668665 -0.010708190500736237
-0.0019926277454942465 -0.0007509382558055222 -0.011136326007544994
0.01862882450222969 -0.004639143124222755 -0.004479525610804558
0.014876347035169601 -0.005221692379564047 -0.007998848333954811
0.00900339800864458 -0.004284529481083155 -0.009670042432844639
0.002532125683501363 -0.003065585158765316 -0.0106281079351902
-0.002291492186486721 -0.001477489829994738 -0.01109550055116415
0.016400935128331184 -0.008409271016716957 -0.004583010450005531
0.011358187533915043 -0.00800283718854189 -0.0075301919132471085
0.0076212696731090546 -0.006199920549988747 -0.009481238201260567
0.0015800914261490107 -0.004448071587830782 -0.010498055256903172
-0.002776840701699257 -0.00214766594581306 -0.011029199697077274
0.011859085410833359 -0.012025211937725544 -0.003967267461121082
0.008990807458758354 -0.010131672024726868 -0.007206792011857033
0.005355377681553364 -0.008250085636973381 -0.009174453094601631
0.00029887747950851917 -0.005660381633788347 -0.010323029942810535
-0.003429999342188239 -0.0027333195321261883 -0.01093997247517109
0.00846823025494814 -0.013969318941235542 -0.003495230572298169
0.005253486335277557 -0.012366401962935925 -0.006702041253447533
0.0015798041131347418 -0.009672953747212887 -0.008668933995068073
-0.0012622966896742582 -0.006346054375171661 -0.010109767317771912
-0.004225866869091988 -0.003210049122571945 -0.010831260122358799
-0.0071970513090491295 3.1565573408443015e-06 -0.010805719532072544
0.002684633480384946 -0.01610586792230606 -0.0027080888394266367
0.0009001011494547129 -0.013689040206372738 -0.006114554591476917
-0.0010059904307126999 -0.01022475678473711 -0.008315700106322765
-0.0030434166546911 -0.007028323598206043 -0.00986645556986332
-0.005133885890245438 -0.003558042459189892 -0.010707215406000614
-0.001513066003099084 -0.01619023084640503 -0.0021237332839518785
-0.0026709376834332943 -0.013791071251034737 -0.005626736208796501
-0.0038117491640150547 -0.010769274085760117 -0.007932420819997787
-0.004976055584847927 -0.007416367530822754 -0.009602446109056473
-0.006119130179286003 -0.003762443782761693 -0.010572624392807484
-0.0058785355649888515 -0.0161150936037302 -0.0015160194598138332
-0.006384688429534435 -0.013830139301717281 -0.005119415931403637
-0.006729621905833483 -0.010815544053912163 -0.007533821277320385
-0.006985920947045088 -0.007486091461032629 -0.009327888488769531
-0.0071437424048781395 -0.0038146532606333494 -0.010432655923068523
-0.010709754191339016 -0.015476206317543983 -0.0008478466188535094
-0.010399936698377132 -0.013511717319488525 -0.004572954960167408
-0.009744802489876747 -0.01066692266613245 -0.007122594863176346
-0.008856888860464096 -0.007226049434393644 -0.009071357548236847
-0.008168375119566917 -0.0037136785686016083 -0.010292688384652138
-0.016028275713324547 -0.013694330118596554 -0.00011798948980867863
-0.014924129471182823 -0.011982658877968788 -0.003961397334933281
-0.013299454003572464 -0.009348618797957897 -0.006642092950642109
-0.011305359192192554 -0.0068701873533427715 -0.008740385994315147
-0.009018490090966225 -0.003465502057224512 -0.010175640694797039
-0.020929815247654915 -0.011722858063876629 0.0005546467145904899
-0.019093668088316917 -0.0103463688865304 -0.003397776512429118
-0.016575442627072334 -0.008398810401558876 -0.00619925931096077
-0.013561894185841084 -0.005826515145599842 -0.008435362949967384
-0.010168863460421562 -0.0032000383362174034 -0.010020138695836067
-0.025226067751646042 -0.009797532111406326 0.0011442200047895312
-0.02274828590452671 -0.008303609676659107 -0.002903763437643647
-0.019446857273578644 -0.006891636643558741 -0.00581111665815115
-0.015539754182100296 -0.0050139655359089375 -0.008167995139956474
-0.01117717195302248 -0.002672429196536541 -0.009883840568363667
-0.028751911595463753 -0.0075247869826853275 0.0016280682757496834
-0.025747545063495636 -0.006541388109326363 -0.0024983412586152554
-0.021803386509418488 -0.005267368163913488 -0.005492569878697395
-0.017162950709462166 -0.003871595486998558 -0.007948582991957664
-0.012004662305116653 -0.002075483789667487 -0.009771978482604027
-0.031371861696243286 -0.004760025534778833 0.0019876002334058285
-0.027976229786872864 -0.0043952325358986855 -0.0021970781963318586
-0.02355440892279148 -0.003533005015924573 -0.005255877040326595
-0.018369100987911224 -0.002598344814032316 -0.007785540074110031
-0.012619552202522755 -0.0014222009340301156 -0.009688867256045341
-0.03258945047855377 -0.0018687349511310458 0.0021576257422566414
-0.02934861369431019 -0.002248126082122326 -0.0020115626975893974
-0.02463270165026188 -0.0018002053257077932 -0.005110116675496101
-0.01911182701587677 -0.0013131756568327546 -0.007685146294534206
-0.012998201884329319 -0.0007206808659248054 -0.009637684561312199
-0.032870348542928696 3.1590354865329573e-06 0.0021981303580105305
-0.02981201373040676 3.1586616842105286e-06 -0.0019489258993417025
-0.02499678172171116 3.1577208119415445e-06 -0.005060904659330845
-0.01936262659728527 3.1578033485857304e-06 -0.0076512424275279045
-0.013126051984727383 3.1566064535581972e-06 -0.009620397351682186
-0.03258945047855377 0.0018750540912151337 0.0021576257422566414
-0.02934861369431019 0.002254440914839506 -0.0020115626975893974
-0.02463270165026188 0.0018065207405015826 -0.005110116675496101
-0.01911182701587677 0.0013194907223805785 -0.007685146294534206
-0.012998201884329319 0.0007269944762811065 -0.009637684561312199
-0.031371861696243286 0.0047663478180766106 0.0019876002334058285
-0.027976229786872864 0.00440155528485775 -0.0021970781963318586
-0.02355440892279148 0.0035393189173191786 -0.005255877040326595
-0.018369100987911224 0.0026046610437333584 -0.007785540074110031
-0.012619552202522755 0.0014285161159932613 -0.009688867256045341
-0.028751911595463753 0.007531109731644392 0.0016280682757496834
-0.025747545063495636 0.006547710858285427 -0.0024983412586152554
-0.021803386509418488 0.005273680202662945 -0.005492569878697395
-0.017162950709462166 0.003877904498949647 -0.007948582991957664
-0.012004662305116653 0.0020817958284169436 -0.009771978482604027
-0.025226067751646042 0.009803864173591137 0.0011442200047895312
-0.02274828590452671 0.008309924043715 -0.002903763437643647
-0.019446857273578644 0.006897959858179092 -0.00581111665815115
-0.015539754182100296 0.005020286422222853 -0.008167995139956474
-0.01117717195302248 0.002678744727745652 -0.009883840568363667
-0.02092980407178402 0.011729166842997074 0.0005546418251469731
-0.019093668088316917 0.01035270094871521 -0.003397776512429118
-0.016575442627072334 0.00840513501316309 -0.00619925931096077
-0.013561894185841084 0.005832823924720287 -0.008435362949967384
-0.010168863460421562 0.0032063538674265146 -0.010020138695836067
-0.01602824777364731 0.013700642623007298 -0.0001179924001917243
-0.014924129471182823 0.011988968588411808 -0.003961397334933281
-0.013299446552991867 0.00935493316501379 -0.006642092950642109
-0.011305359192192554 0.006876497063785791 -0.008740385994315147
-0.009018490090966225 0.0034718113020062447 -0.010175640694797039
-0.010709734633564949 0.015482521615922451 -0.0008478487143293023
-0.010399919003248215 0.013518032617866993 -0.004572957754135132
-0.009744803421199322 0.01067323051393032 -0.007122594863176346
-0.008856875821948051 0.007232359144836664 -0.00907136034220457
-0.008168376050889492 0.0037199868820607662 -0.010292688384652138
-0.005878527648746967 0.016121407970786095 -0.0015160206239670515
-0.006384688429534435 0.013836449012160301 -0.005119415931403637
-0.006985920947045088 0.007492404896765947 -0.009327888488769531
-0.0071437424048781395 0.003820963203907013 -0.010432655923068523
0.031638629734516144 -0.00383202382363379 -0.0027451261412352324
0.031581535935401917 -0.0019756245892494917 -0.004027669318020344
0.031562257558107376 1.05845765574486e-06 -0.004460782743990421
0.03158154711127281 0.0019777421839535236 -0.0040276674553751945
0.03163864463567734 0.003834148170426488 -0.0027451184578239918
0.02302851714193821 -0.0035948229487985373 -0.0020390269346535206
0.023028520867228508 0.0035969456657767296 -0.0020390241406857967
0.023517455905675888 1.0585027894194354e-06 -0.0036316171754151583
0.02339402213692665 0.0018554197158664465 -0.0032295689452439547
0.02339402213692665 -0.001853301771916449 -0.003229573369026184
0.03338996320962906 -0.0023827524855732918 -0.004061377607285976
0.033256445080041885 -0.004447393584996462 -0.003189351875334978
0.033776115626096725 0.0020009190775454044 -0.004144582431763411
0.03325645253062248 0.004078739322721958 -0.0031893430277705193
0.13477274775505066 -0.0023500770330429077 -0.011472482234239578
0.13483284413814545 -0.004385384265333414 -0.010600650683045387
0.1347399353981018 -0.00018290241132490337 -0.01192467100918293
0.13477274775505066 0.001984278205782175 -0.01147247664630413
0.13483285903930664 0.004019588232040405 -0.01060064323246479
0.047549404203891754 0.0023072727490216494 -0.00515141524374485
0.05969006195664406 0.00248717050999403 -0.005705352406948805
0.07612976431846619 0.003318351460620761 -0.007185665890574455
0.09061303734779358 0.00340780196711421 -0.00824439525604248
0.10509628802537918 0.003159727668389678 -0.009303119964897633
0.11957952380180359 0.0026102145202457905 -0.010361849330365658
0.11975712329149246 -0.0009887453634291887 -0.01085728406906128
0.07426844537258148 -0.0013035181909799576 -0.007235728204250336
0.06455694884061813 -0.00018433514924254268 -0.007203232496976852
0.04705604910850525 0.0046727946028113365 -0.004196200519800186
0.06156696379184723 0.005915282294154167 -0.005254958290606737
0.07607787847518921 0.006607896648347378 -0.0063137151300907135
0.09058880805969238 0.006781354080885649 -0.007372471038252115
0.10509971529245377 0.006298961117863655 -0.008431226946413517
0.11961062997579575 0.005233370698988438 -0.009489987976849079
0.04635235667228699 -0.0025179297663271427 -0.004893473815172911
0.06083560734987259 -0.003158668987452984 -0.005952204577624798
0.07612975686788559 -0.003687010146677494 -0.0071856677532196045
0.09061302244663239 -0.0037764599546790123 -0.008244398050010204
0.10509627312421799 -0.0035255278926342726 -0.009303122758865356
0.11752761155366898 -0.002813515020534396 -0.009919699281454086
0.11961061507463455 -0.005599163472652435 -0.009489995427429676
0.10509970784187317 -0.006664755288511515 -0.008431238122284412
0.09058879315853119 -0.007150005083531141 -0.007372482214123011
0.07607787102460861 -0.006976551841944456 -0.006313723977655172
0.06156695634126663 -0.00628393841907382 -0.005254965275526047
0.047056037932634354 -0.005041447933763266 -0.004196209833025932
0.13336597383022308 0.0020422395318746567 -0.011369644664227962
0.13342338800430298 0.004131979309022427 -0.010497805662453175
0.1333659589290619 -0.0024080381263047457 -0.011369644664227962
0.13333407044410706 -0.00018290245498064905 -0.011821839027106762
0.13342337310314178 -0.004497772082686424 -0.010497813113033772
0.033341702073812485 -0.0034150714054703712 -0.003391757607460022
0.03372785449028015 0.0030332449823617935 -0.003474959870800376
0.13475632667541504 0.00090069102589041 -0.011698576621711254
0.13482128083705902 -0.003367732046172023 -0.010802960954606533
0.13482128083705902 0.0030019364785403013 -0.01080295443534851
0.13475631177425385 -0.0012664897367358208 -0.011698574759066105
0.13406935334205627 0.002013258868828416 -0.01142106018960476
0.134128138422966 0.004075783770531416 -0.01054922491312027
0.13406933844089508 -0.002379057463258505 -0.011421062983572483
0.04015624150633812 -0.004744422622025013 -0.003692780854180455
0.04066276550292969 0.0021540960296988487 -0.004648000001907349
0.054791033267974854 0.0026276411954313517 -0.005680779926478863
0.06888815015554428 0.003139762906357646 -0.006656303070485592
0.08337140083312988 0.003442264860495925 -0.007715030573308468
0.09785466641187668 0.003206817666068673 -0.00877375714480877
0.11233790218830109 0.002884971210733056 -0.00983248557895422
0.12644529342651367 -0.0001829026296036318 -0.011317947879433632
0.07102162390947342 0.00014484080020338297 -0.0075661782175302505
0.040156248956918716 0.004375765565782785 -0.003692771540954709
0.05431150272488594 0.005294039845466614 -0.004725578706711531
0.06882242113351822 0.006261592730879784 -0.005784336943179369
0.08333335071802139 0.006848177872598171 -0.006843090523034334
0.09784425050020218 0.006391615606844425 -0.007901848293840885
0.11235518008470535 0.005766165442764759 -0.008960610255599022
0.039465706795454025 -0.0023647567722946405 -0.004390058107674122
0.05359398201107979 -0.002838297514244914 -0.005422838032245636
0.06940300017595291 -0.0034425905905663967 -0.006767249200493097
0.08337139338254929 -0.0038109200540930033 -0.007715032435953617
0.09785465151071548 -0.0035754782147705555 -0.008773759007453918
0.11233788728713989 -0.0032507709693163633 -0.009832487441599369
0.12651701271533966 -0.00504846777766943 -0.009993906132876873
0.11235515773296356 -0.006131959613412619 -0.008960616774857044
0.09784425050020218 -0.006760269869118929 -0.00790185946971178
0.0833333358168602 -0.0072168330661952496 -0.006843104958534241
0.06882241368293762 -0.006630245130509138 -0.00578434718772769
0.054311495274305344 -0.005662696901708841 -0.0047255889512598515
0.06577254831790924 -0.0009670734289102256 -0.007240604143589735
0.07857785373926163 -0.003120690817013383 -0.007938764989376068
0.12034783512353897 -0.0016448043752461672 -0.010755994357168674
0.047128140926361084 -0.003865273203700781 -0.0043986025266349316
0.06162522733211517 -0.004806889686733484 -0.005457345861941576
0.07612230628728867 -0.005331780761480331 -0.006516090594232082
0.09061939269304276 -0.005463234148919582 -0.007574832532554865
0.10511647909879684 -0.0050951410084962845 -0.008633571676909924
0.11961356550455093 -0.00428759166970849 -0.009692318737506866
0.04751429334282875 0.0034834477119147778 -0.004481804557144642
0.06162523105740547 0.004438233561813831 -0.005457341205328703
0.07612232118844986 0.004963122308254242 -0.006516085471957922
0.09061942249536514 0.005094579886645079 -0.007574826944619417
0.10511649399995804 0.004729344509541988 -0.008633567951619625
0.11961356550455093 0.003921792842447758 -0.00969231128692627
0.06149924173951149 0.0017044286942109466 -0.006319773383438587
0.11809533089399338 9.0824905782938e-06 -0.010270615108311176
0.12647275626659393 0.0023262270260602236 -0.010865746065974236
0.12651701271533966 0.004682675004005432 -0.009993898682296276
0.12647274136543274 -0.0026920230593532324 -0.010865747928619385
0.13403701782226562 -0.0001829024258768186 -0.011873256415128708
0.1341281235218048 -0.004441579803824425 -0.010549233295023441
0.13335001468658447 -0.0012954702833667397 -0.011595744639635086
0.1334131509065628 -0.0034529021941125393 -0.010700120590627193
0.1334131956100464 0.0030871094204485416 -0.010700116865336895
0.13335001468658447 0.0009296685457229614 -0.011595742776989937
0.1264590322971344 0.0010716638062149286 -0.011091849766671658
0.12651337683200836 0.0035044478718191385 -0.010196213610470295
0.12651336193084717 -0.0038702471647411585 -0.010196216404438019
0.1264590173959732 -0.001437462866306305 -0.011091849766671658
0.11483867466449738 0.0022624165285378695 -0.010599440895020962
0.06786327064037323 0.002333560260012746 -0.0066605303436517715
0.11236503720283508 0.004325571469962597 -0.00916294101625681
0.097867950797081 0.004799215123057365 -0.008104193024337292
0.0833708718419075 0.00514522148296237 -0.007045455276966095
0.06887378543615341 0.004700677469372749 -0.005986712407320738
0.0547628328204155 0.003954256419092417 -0.005011178087443113
0.0406210720539093 0.0032583498395979404 -0.003978382796049118
0.11236501485109329 -0.004691365174949169 -0.009162944741547108
0.097867950797081 -0.0051678759045898914 -0.008104201406240463
0.0833708643913269 -0.005513876676559448 -0.007045462261885405
0.06887376308441162 -0.005069333594292402 -0.005986716132611036
0.05437668412923813 -0.004336081445217133 -0.004927974659949541
0.040234923362731934 -0.003640175797045231 -0.0038951809983700514
0.08021807670593262 -0.0032484810799360275 -0.007261616177856922
0.06676920503377914 -0.0017805453389883041 -0.006424780935049057
0.13405315577983856 -0.0012809800682589412 -0.011647156439721584
0.1341172158718109 -0.0034103188663721085 -0.010751538909971714
0.1341172307729721 0.003044519806280732 -0.010751533322036266
0.13405317068099976 0.0009151813574135303 -0.011647159233689308
0.03163864463567734 0.003834148170426488 -0.0027451184578239918
0.03325645253062248 0.004078739322721958 -0.0031893430277705193
