-0.04873156547546387 0.04882397502660751 -0.06323347240686417
-0.04873158037662506 -0.04881593585014343 -0.06323347240686417
0.048740532249212265 0.04882397502660751 -0.06323347240686417
0.04874052479863167 -0.04881593585014343 -0.06323347240686417
-0.048731569200754166 0.03478687256574631 -0.06323347240686417
-0.048731569200754166 0.010000397451221943 -0.06323347240686417
-0.048731569200754166 -0.009527581743896008 -0.06323347240686417
-0.048731569200754166 -0.03526194021105766 -0.06323347240686417
0.04874052479863167 -0.03526194393634796 -0.06323347240686417
0.04874052479863167 -0.00952758640050888 -0.06323347240686417
0.04874052479863167 0.010000394657254219 -0.06323347240686417
0.04874052479863167 0.03478686511516571 -0.06323347240686417
0.034937623888254166 0.04882397502660751 -0.06323347240686417
0.009394514374434948 0.04882397502660751 -0.06323347240686417
-0.010099908336997032 0.04882397502660751 -0.06323347240686417
-0.03434308245778084 0.04882397502660751 -0.06323347240686417
-0.034343089908361435 -0.04881593585014343 -0.06323347240686417
-0.01009991392493248 -0.04881593585014343 -0.06323347240686417
0.009394507855176926 -0.04881593585014343 -0.06323347240686417
0.03493760898709297 -0.04881593585014343 -0.06323347240686417
-0.03576507419347763 0.03624216839671135 -0.06323347240686417
-0.010523003526031971 0.03624216839671135 -0.06323347240686417
0.009788228198885918 0.03624216839671135 -0.06323347240686417
0.03641848266124725 0.03624216839671135 -0.06323347240686417
-0.03576507419347763 0.010419344529509544 -0.06323347240686417
-0.010523004457354546 0.010419342666864395 -0.06323347240686417
0.009788227267563343 0.010419342666864395 -0.06323347240686417
0.036418478935956955 0.010419340804219246 -0.06323347240686417
-0.03576507419347763 -0.009926854632794857 -0.06323347240686417
-0.01052300538867712 -0.009926856495440006 -0.06323347240686417
0.009788226336240768 -0.009926856495440006 -0.06323347240686417
0.036418478935956955 -0.009926857426762581 -0.06323347240686417
-0.03576507791876793 -0.03674168139696121 -0.06323347240686417
-0.01052300725132227 -0.03674168139696121 -0.06323347240686417
0.009788225404918194 -0.03674168139696121 -0.06323347240686417
0.036418475210666656 -0.03674168139696121 -0.06323347240686417
-0.06849993020296097 0.06863286346197128 0.04316707327961922
-0.06849994510412216 -0.06878142803907394 0.04316707327961922
0.06867820769548416 0.06863284856081009 0.04316707327961922
0.06867819279432297 -0.06878144294023514 0.04316707327961922
-0.07427360117435455 0.05299710854887962 0.04316707327961922
-0.07427360117435455 0.015240953303873539 0.04316707327961922
-0.07427360117435455 -0.014523940160870552 0.04316707327961922
-0.07427360117435455 -0.05377252399921417 0.04316707327961922
0.07429510354995728 -0.053772538900375366 0.04316707327961922
0.07429510354995728 -0.01452394388616085 0.04316707327961922
0.07429510354995728 0.015240948647260666 0.04316707327961922
0.07429510354995728 0.052997101098299026 0.04316707327961922
0.053439538925886154 0.07441653311252594 0.04316707327961922
0.014323215000331402 0.07441653311252594 0.04316707327961922
-0.015390526503324509 0.07441653311252594 0.04316707327961922
-0.05215933918952942 0.07441653311252594 0.04316707327961922
-0.05215936154127121 -0.07440795749425888 0.04316707327961922
-0.01539053488522768 -0.07440795749425888 0.04316707327961922
0.014323205687105656 -0.07440795749425888 0.04316707327961922
0.05343951657414436 -0.07440795749425888 0.04316707327961922
-0.06849993020296097 0.06863286346197128 0.048481862992048264
-0.06849994510412216 -0.06878142803907394 0.048481862992048264
0.06867820769548416 0.06863284856081009 0.048481862992048264
0.06867819279432297 -0.06878144294023514 0.048481862992048264
-0.07427360117435455 0.05299710854887962 0.048481862992048264
-0.07427360117435455 0.015240953303873539 0.048481862992048264
-0.07427360117435455 -0.014523940160870552 0.048481862992048264
-0.07427360117435455 -0.05377252399921417 0.048481862992048264
0.07429510354995728 -0.053772538900375366 0.048481862992048264
0.07429510354995728 -0.01452394388616085 0.048481862992048264
0.07429510354995728 0.015240948647260666 0.048481862992048264
0.07429510354995728 0.052997101098299026 0.048481862992048264
0.053439538925886154 0.07441653311252594 0.048481862992048264
0.014323215000331402 0.07441653311252594 0.048481862992048264
-0.015390526503324509 0.07441653311252594 0.048481862992048264
-0.05215933918952942 0.07441653311252594 0.048481862992048264
-0.05215936154127121 -0.07440795749425888 0.048481862992048264
-0.01539053488522768 -0.07440795749425888 0.048481862992048264
0.014323205687105656 -0.07440795749425888 0.048481862992048264
0.05343951657414436 -0.07440795749425888 0.048481862992048264
-0.06394784152507782 0.06407205760478973 0.04341745004057884
-0.06934353709220886 0.04948309063911438 0.04341745749115944
-0.014368915930390358 0.06947702914476395 0.04341745749115944
-0.04872578755021095 0.06947702914476395 0.04341745004057884
-0.06934352964162827 0.014229330234229565 0.04341745004057884
-0.06394786387681961 -0.06422112882137299 0.04341745749115944
-0.04872580245137215 -0.06946898996829987 0.04341745004057884
-0.06934352964162827 -0.013559872284531593 0.04341745004057884
-0.01436892431229353 -0.06946898996829987 0.04341745004057884
-0.06934353709220886 -0.050199538469314575 0.04341745004057884
0.013372521847486496 -0.06946898996829987 0.04341745004057884
0.06412487477064133 -0.06422112882137299 0.04341745749115944
0.06936369091272354 -0.050199538469314575 0.04341745749115944
0.0498637929558754 -0.06946898996829987 0.04341745749115944
0.06412488222122192 0.06407205760478973 0.04341745749115944
0.04986381530761719 0.06947702914476395 0.04341745749115944
0.06936369091272354 -0.013559876941144466 0.04341745004057884
0.013372529298067093 0.06947702914476395 0.04341745749115944
0.06936369091272354 0.014229325577616692 0.04341745749115944
0.06936369091272354 0.04948309063911438 0.04341745749115944
-0.06927100569009781 0.049431391060352325 0.04106075316667557
-0.04867526516318321 0.06940435618162155 0.04106075316667557
-0.06927098333835602 0.014214444905519485 0.04106074571609497
-0.048675280064344406 -0.06939632445573807 0.04106074571609497
-0.06927098333835602 -0.013545687310397625 0.04106074571609497
-0.014353889971971512 -0.06939632445573807 0.04106074571609497
-0.06927100569009781 -0.05014697089791298 0.04106074571609497
0.01335853524506092 -0.06939632445573807 0.04106075316667557
0.0692911446094513 -0.05014697089791298 0.04106075316667557
0.04981117695569992 -0.06939632445573807 0.04106075316667557
0.04981119558215141 0.06940435618162155 0.04106075316667557
0.0692911446094513 -0.013545691967010498 0.04106074571609497
0.013358540832996368 0.06940435618162155 0.04106075316667557
0.0692911446094513 0.014214440248906612 0.04106075316667557
-0.06388086080551147 0.06400495767593384 0.04106075316667557
-0.014353884384036064 0.06940435618162155 0.04106075316667557
-0.06388088315725327 -0.06415404379367828 0.04106075316667557
0.06405787914991379 -0.06415404379367828 0.04106075316667557
0.06405788660049438 0.06400495767593384 0.04106075316667557
0.0692911446094513 0.049431391060352325 0.04106075316667557
0.07429510354995728 0.052997101098299026 0.04529900848865509
0.06867820769548416 0.06863284856081009 0.04529900848865509
-0.01539053488522768 -0.07440795749425888 0.04529900848865509
0.014323205687105656 -0.07440795749425888 0.04529900848865509
0.07429510354995728 0.015240948647260666 0.04529900848865509
-0.06849993020296097 0.06863286346197128 0.04529900848865509
-0.07427360117435455 0.05299710854887962 0.04529900848865509
0.05343951657414436 -0.07440795749425888 0.04529900848865509
0.053439538925886154 0.07441653311252594 0.04529900848865509
-0.07427360117435455 0.015240953303873539 0.04529900848865509
0.014323215000331402 0.07441653311252594 0.04529900848865509
-0.07427360117435455 -0.014523940160870552 0.04529900848865509
-0.015390526503324509 0.07441653311252594 0.04529900848865509
-0.07427360117435455 -0.05377252399921417 0.04529900848865509
-0.05215933918952942 0.07441653311252594 0.04529900848865509
0.06867819279432297 -0.06878144294023514 0.04529900848865509
0.07429510354995728 -0.053772538900375366 0.04529900848865509
-0.06849994510412216 -0.06878142803907394 0.04529900848865509
-0.05215936154127121 -0.07440795749425888 0.04529900848865509
0.07429510354995728 -0.01452394388616085 0.04529900848865509
-0.06849993020296097 0.06863286346197128 0.048481862992048264
-0.06849994510412216 -0.06878142803907394 0.048481862992048264
0.06867820769548416 0.06863284856081009 0.048481862992048264
0.06867819279432297 -0.06878144294023514 0.048481862992048264
-0.07427360117435455 0.05299710854887962 0.048481862992048264
-0.07427360117435455 0.015240953303873539 0.048481862992048264
-0.07427360117435455 -0.014523940160870552 0.048481862992048264
-0.07427360117435455 -0.05377252399921417 0.048481862992048264
0.07429510354995728 -0.053772538900375366 0.048481862992048264
0.07429510354995728 -0.01452394388616085 0.048481862992048264
0.07429510354995728 0.015240948647260666 0.048481862992048264
0.07429510354995728 0.052997101098299026 0.048481862992048264
0.053439538925886154 0.07441653311252594 0.048481862992048264
0.014323215000331402 0.07441653311252594 0.048481862992048264
-0.015390526503324509 0.07441653311252594 0.048481862992048264
-0.05215933918952942 0.07441653311252594 0.048481862992048264
-0.05215936154127121 -0.07440795749425888 0.048481862992048264
-0.01539053488522768 -0.07440795749425888 0.048481862992048264
0.014323205687105656 -0.07440795749425888 0.048481862992048264
0.05343951657414436 -0.07440795749425888 0.048481862992048264
-0.06543239951133728 0.06555946171283722 0.048481862992048264
-0.06543242186307907 -0.06570838391780853 0.048481862992048264
0.06560983508825302 0.06555946171283722 0.048481862992048264
0.06560982763767242 -0.06570838391780853 0.048481862992048264
-0.07095136493444443 0.050629109144210815 0.048481862992048264
-0.07095136493444443 0.014559248462319374 0.048481862992048264
-0.07095136493444443 -0.013874280266463757 0.048481862992048264
-0.07095136493444443 -0.05136478692293167 0.048481862992048264
0.07097195833921432 -0.05136479064822197 0.048481862992048264
0.07097195833921432 -0.01387428492307663 0.048481862992048264
0.07097195833921432 0.014559242874383926 0.048481862992048264
0.07097195833921432 0.05062910169363022 0.048481862992048264
0.05102994292974472 0.07108793407678604 0.048481862992048264
0.013682574965059757 0.07108793407678604 0.048481862992048264
-0.014702088199555874 0.07108793407678604 0.048481862992048264
-0.04984556511044502 0.07108793407678604 0.048481862992048264
-0.04984557628631592 -0.07107973098754883 0.048481862992048264
-0.01470209565013647 -0.07107973098754883 0.048481862992048264
0.013682566583156586 -0.07107973098754883 0.048481862992048264
0.05102992802858353 -0.07107973098754883 0.048481862992048264
-0.061111580580472946 0.06123036891222 0.048481862992048264
-0.06111159175634384 -0.061379771679639816 0.048481862992048264
0.06128784641623497 0.06123036891222 0.048481862992048264
0.061287835240364075 -0.061379771679639816 0.048481862992048264
-0.06627175956964493 0.04729361832141876 0.048481862992048264
-0.06627175956964493 0.013599012978374958 0.048481862992048264
-0.06627175956964493 -0.012959199026226997 0.048481862992048264
-0.06627175956964493 -0.04797331988811493 0.048481862992048264
0.06629108637571335 -0.047973331063985825 0.048481862992048264
0.06629108637571335 -0.01295920368283987 0.048481862992048264
0.06629108637571335 0.013599006459116936 0.048481862992048264
0.06629108637571335 0.047293610870838165 0.048481862992048264
0.04763588309288025 0.06639938801527023 0.048481862992048264
0.012780189514160156 0.06639938801527023 0.048481862992048264
-0.013732378371059895 0.06639938801527023 0.048481862992048264
-0.04658643901348114 0.06639938801527023 0.048481862992048264
-0.04658645763993263 -0.06639169156551361 0.048481862992048264
-0.013732386752963066 -0.06639169156551361 0.048481862992048264
0.01278018206357956 -0.06639169156551361 0.048481862992048264
0.04763586446642876 -0.06639169156551361 0.048481862992048264
-0.06013113260269165 0.060248058289289474 0.048481862992048264
-0.060131147503852844 -0.060397565364837646 0.048481862992048264
0.06030714511871338 0.060248058289289474 0.048481862992048264
0.06030712649226189 -0.060397565364837646 0.048481862992048264
-0.06520990282297134 0.04653676599264145 0.048481862992048264
-0.06520990282297134 0.013381125405430794 0.048481862992048264
-0.06520990282297134 -0.012751555070281029 0.048481862992048264
-0.06520990282297134 -0.04720376059412956 0.048481862992048264
0.06522894650697708 -0.04720376431941986 0.048481862992048264
0.06522894650697708 -0.012751560658216476 0.048481862992048264
0.06522894650697708 0.01338112074881792 0.048481862992048264
0.06522894650697708 0.046536754816770554 0.048481862992048264
0.04686572775244713 0.06533551216125488 0.048481862992048264
0.012575430795550346 0.06533551216125488 0.048481862992048264
-0.013512340374290943 0.06533551216125488 0.048481862992048264
-0.045846909284591675 0.06533551216125488 0.048481862992048264
-0.04584692418575287 -0.06532792747020721 0.048481862992048264
-0.01351234782487154 -0.06532792747020721 0.048481862992048264
0.012575422413647175 -0.06532792747020721 0.048481862992048264
0.04686571657657623 -0.06532792747020721 0.048481862992048264
-0.049017518758773804 0.04911045730113983 -0.05058138072490692
-0.0490175262093544 -0.04910242184996605 -0.05058138072490692
0.049026552587747574 0.04911045730113983 -0.05058138072490692
0.049026548862457275 -0.04910242184996605 -0.05058138072490692
-0.0490175224840641 0.03499067574739456 -0.05058138072490692
-0.0490175224840641 0.010059062391519547 -0.05058138072490692
-0.0490175224840641 -0.009583509527146816 -0.05058138072490692
-0.0490175224840641 -0.035469185560941696 -0.05058138072490692
0.049026552587747574 -0.035469185560941696 -0.05058138072490692
0.049026552587747574 -0.009583513252437115 -0.05058138072490692
0.049026552587747574 0.010059058666229248 -0.05058138072490692
0.049026552587747574 0.03499067202210426 -0.05058138072490692
0.03514501824975014 0.04911045730113983 -0.05058138072490692
0.009449652396142483 0.04911045730113983 -0.05058138072490692
-0.010159161873161793 0.04911045730113983 -0.05058138072490692
-0.034542229026556015 0.04911045730113983 -0.05058138072490692
-0.03454224020242691 -0.04910242184996605 -0.05058138072490692
-0.010159166529774666 -0.04910242184996605 -0.05058138072490692
0.00944964587688446 -0.04910242184996605 -0.05058138072490692
0.03514500707387924 -0.04910242184996605 -0.05058138072490692
-0.04408420994877815 0.04416772723197937 -0.05058138072490692
-0.04408422112464905 -0.04416021332144737 -0.05058138072490692
0.04409191757440567 0.04416772723197937 -0.05058138072490692
0.044091906398534775 -0.04416021332144737 -0.05058138072490692
-0.04408421739935875 0.031474363058805466 -0.05058138072490692
-0.04408421739935875 0.009046775288879871 -0.05058138072490692
-0.04408421739935875 -0.008618810214102268 -0.05058138072490692
-0.04408421739935875 -0.03189385309815407 -0.05058138072490692
0.04409191384911537 -0.031893860548734665 -0.05058138072490692
0.04409191384911537 -0.008618814870715141 -0.05058138072490692
0.04409191384911537 0.009046771563589573 -0.05058138072490692
0.04409191384911537 0.03147435560822487 -0.05058138072490692
0.03156694024801254 0.04416772723197937 -0.05058138072490692
0.008498342707753181 0.04416772723197937 -0.05058138072490692
-0.00913687888532877 0.04416772723197937 -0.05058138072490692
-0.03110642358660698 0.04416772723197937 -0.05058138072490692
-0.031106434762477875 -0.04416021332144737 -0.05058138072490692
-0.009136882610619068 -0.04416021332144737 -0.05058138072490692
0.008498338982462883 -0.04416021332144737 -0.05058138072490692
0.031566932797431946 -0.04416021332144737 -0.05058138072490692
-0.030854448676109314 0.030912654474377632 -0.05058138072490692
-0.030854450538754463 -0.030906574800610542 -0.05058138072490692
0.030858535319566727 0.030912650749087334 -0.05058138072490692
0.03085852786898613 -0.03090657852590084 -0.05058138072490692
-0.030854450538754463 0.022044561803340912 -0.05058138072490692
-0.030854450538754463 0.006332090124487877 -0.05058138072490692
-0.030854450538754463 -0.006031752564013004 -0.05058138072490692
-0.030854450538754463 -0.022305777296423912 -0.05058138072490692
0.030858531594276428 -0.02230577915906906 -0.05058138072490692
0.030858531594276428 -0.006031754892319441 -0.05058138072490692
0.030858531594276428 0.006332088261842728 -0.05058138072490692
0.030858531594276428 0.022044558078050613 -0.05058138072490692
0.021971506997942924 0.030912654474377632 -0.05058138072490692
0.005947198253124952 0.030912654474377632 -0.05058138072490692
-0.006395394913852215 0.030912654474377632 -0.05058138072490692
-0.02189251035451889 0.030912654474377632 -0.05058138072490692
-0.021892517805099487 -0.03090657852590084 -0.05058138072490692
-0.006395399570465088 -0.03090657852590084 -0.05058138072490692
0.0059471940621733665 -0.03090657852590084 -0.05058138072490692
0.021971503272652626 -0.03090657852590084 -0.05058138072490692
-0.02015835978090763 0.020196108147501945 -0.05058138072490692
-0.02015836350619793 -0.02019120380282402 -0.05058138072490692
0.020159533247351646 0.020196108147501945 -0.05058138072490692
0.020159529522061348 -0.02019120380282402 -0.05058138072490692
-0.02015835978090763 0.01442070584744215 -0.05058138072490692
-0.02015836164355278 0.004137307405471802 -0.05058138072490692
-0.02015836164355278 -0.003940153401345015 -0.05058138072490692
-0.02015836350619793 -0.01455395296216011 -0.05058138072490692
0.020159529522061348 -0.014553953893482685 -0.05058138072490692
0.020159531384706497 -0.003940154332667589 -0.05058138072490692
0.020159531384706497 0.00413730600848794 -0.05058138072490692
0.020159533247351646 0.014420703053474426 -0.05058138072490692
0.014213748276233673 0.020196108147501945 -0.05058138072490692
0.003884632606059313 0.020196108147501945 -0.05058138072490692
-0.004178945440798998 0.020196108147501945 -0.05058138072490692
-0.014443193562328815 0.020196108147501945 -0.05058138072490692
-0.014443199150264263 -0.02019120380282402 -0.05058138072490692
-0.004178947769105434 -0.02019120380282402 -0.05058138072490692
0.0038846302777528763 -0.02019120380282402 -0.05058138072490692
0.014213744550943375 -0.02019120380282402 -0.05058138072490692
-0.007838621735572815 0.007852805778384209 -0.05058138072490692
-0.007838623598217964 -0.007849239744246006 -0.05058138072490692
0.00783643126487732 0.007852802984416485 -0.05058138072490692
0.00783643126487732 -0.007849239744246006 -0.05058138072490692
-0.007838621735572815 0.0056395502761006355 -0.05058138072490692
-0.007838621735572815 0.0016093590529635549 -0.05058138072490692
-0.007838621735572815 -0.0015310496091842651 -0.05058138072490692
-0.007838621735572815 -0.005625405814498663 -0.05058138072490692
0.00783643126487732 -0.00562540628015995 -0.05058138072490692
0.00783643126487732 -0.0015310501912608743 -0.05058138072490692
0.00783643126487732 0.0016093584708869457 -0.05058138072490692
0.00783643126487732 0.005639549810439348 -0.05058138072490692
0.005278360564261675 0.00785280391573906 -0.05058138072490692
0.001508970744907856 0.00785280391573906 -0.05058138072490692
-0.0016260405536741018 0.00785280391573906 -0.05058138072490692
-0.005863073281943798 0.00785280391573906 -0.05058138072490692
-0.005863075610250235 -0.007849239744246006 -0.05058138072490692
-0.0016260414849966764 -0.007849239744246006 -0.05058138072490692
0.0015089698135852814 -0.007849239744246006 -0.05058138072490692
0.005278358701616526 -0.007849239744246006 -0.05058138072490692
-0.05366789922118187 0.03830532357096672 -0.037850696593523026
-0.03778098523616791 0.053769733756780624 -0.037850696593523026
-0.053667888045310974 0.011013293638825417 -0.037850696593523026
-0.0377810038626194 -0.053761184215545654 -0.037850696593523026
-0.053667888045310974 -0.010492883622646332 -0.037850696593523026
-0.011122816242277622 -0.053761184215545654 -0.037850696593523026
-0.05366789922118187 -0.03883947432041168 -0.037850696593523026
0.010346399620175362 -0.053761184215545654 -0.037850696593523026
0.05367819964885712 -0.03883947804570198 -0.037850696593523026
0.03851788118481636 -0.053761184215545654 -0.037850696593523026
0.03851790353655815 0.053769733756780624 -0.037850696593523026
0.05367819964885712 -0.010492888279259205 -0.037850696593523026
0.01034640520811081 0.053769733756780624 -0.037850696593523026
0.05367819964885712 0.011013289913535118 -0.037850696593523026
-0.053667884320020676 0.053769733756780624 -0.037850696593523026
-0.01112281158566475 0.053769733756780624 -0.037850696593523026
-0.05366789922118187 -0.053761184215545654 -0.037850696593523026
0.051041848957538605 -0.05112016573548317 -0.037850700318813324
0.053678207099437714 0.053769733756780624 -0.037850696593523026
0.05367819964885712 0.03830532357096672 -0.037850696593523026
-0.05170447379350662 0.03690585494041443 -0.0498410165309906
-0.03641356900334358 0.051802556961774826 -0.0498410165309906
-0.051704466342926025 0.010610411874949932 -0.0498410165309906
-0.03641357645392418 -0.05179420858621597 -0.0498410165309906
-0.051704466342926025 -0.010108936578035355 -0.0498410165309906
-0.010715960524976254 -0.05179420858621597 -0.0498410165309906
-0.05170447379350662 -0.037416502833366394 -0.0498410165309906
0.009967781603336334 -0.05179420858621597 -0.0498410165309906
0.05171423405408859 -0.03741651400923729 -0.0498410165309906
0.037093814462423325 -0.05179420858621597 -0.0498410165309906
0.03709383308887482 0.051802556961774826 -0.0498410165309906
0.05171423405408859 -0.010108941234648228 -0.0498410165309906
0.009967786259949207 0.051802556961774826 -0.0498410165309906
0.05171423405408859 0.010610407218337059 -0.0498410165309906
-0.051704466342926025 0.051802556961774826 -0.0498410165309906
-0.010715954005718231 0.051802556961774826 -0.0498410165309906
-0.05170447751879692 -0.05179420858621597 -0.0498410165309906
0.051714226603507996 -0.05179420858621597 -0.0498410165309906
0.05171423777937889 0.051802556961774826 -0.0498410165309906
0.05171423405408859 0.03690585494041443 -0.0498410165309906
