-0.012792350724339485 0.008547862991690636 0.1117926836013794
-0.01421411707997322 0.005887969397008419 0.1117926836013794
-0.015089631080627441 0.0030017918907105923 0.1117926836013794
-0.015385282225906849 2.799230003347475e-07 0.1117926836013794
-0.015089672990143299 -0.0030012382194399834 0.1117926836013794
-0.014214186929166317 -0.005887429229915142 0.1117926836013794
-0.012792437337338924 -0.008547329343855381 0.1117926836013794
-0.01087911892682314 -0.010878793895244598 0.1117926836013794
-0.00854770839214325 -0.012792175635695457 0.1117926836013794
-0.005887810606509447 -0.01421394944190979 0.1117926836013794
-0.0030016324017196894 -0.015089462511241436 0.1117926836013794
-9.811938639359141e-08 -0.015385089442133904 0.1117926836013794
0.0030013995710760355 -0.015089504420757294 0.1117926836013794
0.005887568462640047 -0.014213998802006245 0.1117926836013794
0.00854751467704773 -0.012792280875146389 0.1117926836013794
0.010878941975533962 -0.01087892334908247 0.1117926836013794
0.012792321853339672 -0.008547515608370304 0.1117926836013794
0.014214089140295982 -0.005887619685381651 0.1117926836013794
0.015089602209627628 -0.0030014433432370424 0.1117926836013794
0.015385251492261887 6.920704720414506e-08 0.1117926836013794
0.015089644119143486 0.0030015893280506134 0.1117926836013794
0.014214140363037586 0.0058877598494291306 0.1117926836013794
0.012792426161468029 0.008547698147594929 0.1117926836013794
0.01087907049804926 0.010879125446081161 0.1117926836013794
0.00854765996336937 0.012792504392564297 0.1117926836013794
0.005887760780751705 0.014214277267456055 0.1117926836013794
0.003001584205776453 0.01508979219943285 0.1117926836013794
8.234526831074618e-06 0.029511403292417526 -0.14765328168869019
0.029511447995901108 -8.266267286671791e-06 -0.14765328168869019
-8.216316018661018e-06 -0.029511481523513794 -0.14765328168869019
-0.029511433094739914 8.187460480257869e-06 -0.14765328168869019
8.234526831074618e-06 0.029511403292417526 0.05075211822986603
0.029511447995901108 -8.266267286671791e-06 0.05075211822986603
-8.219200935855042e-06 -0.029511479660868645 0.05075211822986603
-0.029511433094739914 8.187460480257869e-06 0.05075211822986603
-0.02950320951640606 0.02951962873339653 -0.053357191383838654
0.02951967529952526 0.029503175988793373 -0.05335718393325806
-0.029519658535718918 -0.02950325421988964 -0.053357191383838654
0.029503220692276955 -0.029519708827137947 -0.05335718393325806
7.677016355955857e-09 -3.937520887120627e-08 -0.14765328168869019
0.029511447995901108 -8.266267286671791e-06 -0.05335718393325806
8.234526831074618e-06 0.029511403292417526 -0.05335718393325806
-8.216316018661018e-06 -0.029511481523513794 -0.05335718393325806
-0.029511433094739914 8.187460480257869e-06 -0.053357191383838654
0.01476395595818758 0.029507292434573174 -0.14765328168869019
0.029507337138056755 -0.014763987623155117 -0.14765328168869019
-0.014763939194381237 -0.029507368803024292 -0.14765328168869019
-0.02950732409954071 0.014763908460736275 -0.14765328168869019
-0.01474748831242323 0.029515516012907028 0.05075211822986603
0.02951556071639061 0.014747457578778267 0.05075211822986603
0.014747503213584423 -0.029515596106648445 0.05075211822986603
-0.029515545815229416 -0.014747535809874535 0.05075211822986603
-0.02950320951640606 0.02951962873339653 -0.006209142506122589
0.02951967529952526 0.029503175988793373 -0.10050523281097412
-0.029519658535718918 -0.02950325421988964 -0.006209142506122589
0.029503220692276955 -0.029519708827137947 -0.10050523281097412
-0.01474748831242323 0.029515516012907028 -0.14765328168869019
0.02951556257903576 0.014747455716133118 -0.14765328168869019
0.014747503213584423 -0.029515596106648445 -0.14765328168869019
-0.029515545815229416 -0.014747535809874535 -0.14765328168869019
0.01476395595818758 0.029507292434573174 0.05075211822986603
0.029507337138056755 -0.014763987623155117 0.05075211822986603
-0.014763940125703812 -0.029507368803024292 0.05075211822986603
-0.02950732409954071 0.014763908460736275 0.05075211822986603
-0.02950320951640606 0.02951962873339653 -0.10050523281097412
0.02951967529952526 0.029503175988793373 -0.006209138780832291
-0.029519658535718918 -0.02950325421988964 -0.10050523281097412
0.029503220692276955 -0.029519708827137947 -0.006209138780832291
-4.104325853404589e-06 -0.014755761250853539 -0.14765328168869019
4.121094661968527e-06 0.014755681157112122 -0.14765328168869019
-0.014755712822079659 4.074028311151778e-06 -0.14765328168869019
0.014755728654563427 -4.152835572313052e-06 -0.14765328168869019
0.029507337138056755 -0.014763987623155117 -0.05335718393325806
0.02951556257903576 0.014747455716133118 -0.05335718393325806
0.029511447995901108 -8.266267286671791e-06 -0.10050523281097412
0.029511447995901108 -8.266267286671791e-06 -0.006209138780832291
0.01476395595818758 0.029507292434573174 -0.05335718393325806
-0.01474748831242323 0.029515516012907028 -0.053357187658548355
8.234526831074618e-06 0.029511403292417526 -0.10050523281097412
8.234526831074618e-06 0.029511403292417526 -0.006209138780832291
-0.014763939194381237 -0.029507368803024292 -0.053357187658548355
0.014747503213584423 -0.029515596106648445 -0.05335718393325806
-8.216316018661018e-06 -0.029511481523513794 -0.10050523281097412
-8.219200935855042e-06 -0.029511479660868645 -0.006209138780832291
-0.02950732409954071 0.014763908460736275 -0.053357191383838654
-0.029515545815229416 -0.014747535809874535 -0.053357191383838654
-0.029511433094739914 8.187460480257869e-06 -0.10050523281097412
-0.029511433094739914 8.187460480257869e-06 -0.006209142506122589
-0.029515545815229416 -0.014747535809874535 -0.006209142506122589
-0.029515545815229416 -0.014747535809874535 -0.10050523281097412
-0.02950732409954071 0.014763908460736275 -0.10050523281097412
0.014747503213584423 -0.029515596106648445 -0.006209138780832291
0.014747503213584423 -0.029515596106648445 -0.10050523281097412
-0.014763939194381237 -0.029507368803024292 -0.10050523281097412
-0.01474748831242323 0.029515516012907028 -0.006209142506122589
-0.01474748831242323 0.029515516012907028 -0.10050523281097412
0.01476395595818758 0.029507292434573174 -0.10050523281097412
0.02951556257903576 0.014747455716133118 -0.006209138780832291
0.02951556257903576 0.014747455716133118 -0.10050523281097412
0.029507337138056755 -0.014763987623155117 -0.10050523281097412
0.011352852918207645 0.011346585117280483 -0.14765328168869019
-0.011346789076924324 0.01135291252285242 -0.14765328168869019
-0.011353115551173687 -0.011346729472279549 -0.14765328168869019
0.011346525512635708 -0.011353055946528912 -0.14765328168869019
0.029507337138056755 -0.014763987623155117 -0.006209138780832291
0.01476395595818758 0.029507292434573174 -0.006209138780832291
-0.014763939194381237 -0.029507368803024292 -0.006209142506122589
-0.02950732409954071 0.014763908460736275 -0.006209142506122589
0.02214181236922741 0.029505234211683273 -0.14765328168869019
0.029505277052521706 -0.022141847759485245 -0.14765328168869019
-0.022141799330711365 -0.029505310580134392 -0.14765328168869019
-0.02950526773929596 0.022141769528388977 -0.14765328168869019
-0.022125350311398506 0.02951757051050663 0.05075211822986603
0.02951761893928051 0.02212531864643097 0.05075211822986603
0.0221253614872694 -0.029517650604248047 0.05075211822986603
-0.029517604038119316 -0.022125395014882088 0.05075211822986603
-0.02950320951640606 0.02951962873339653 0.017364874482154846
0.02951967529952526 0.029503175988793373 -0.12407925724983215
-0.029519658535718918 -0.02950325421988964 0.017364874482154846
0.029503220692276955 -0.029519708827137947 -0.12407925724983215
-0.0073696281760931015 0.029513457790017128 -0.14765328168869019
0.02951350435614586 0.00736959557980299 -0.14765328168869019
0.007369639817625284 -0.029513537883758545 -0.14765328168869019
-0.029513491317629814 -0.007369674276560545 -0.14765328168869019
0.007386094890534878 0.029509346932172775 0.05075211822986603
0.029509391635656357 -0.007386127021163702 0.05075211822986603
-0.007386079523712397 -0.029509425163269043 0.05075211822986603
-0.02950938232243061 0.007386047393083572 0.05075211822986603
-0.02950320951640606 0.02951962873339653 -0.07693121582269669
0.02951967529952526 0.029503175988793373 -0.029783159494400024
-0.029519658535718918 -0.02950325421988964 -0.07693121582269669
0.029503220692276955 -0.029519708827137947 -0.029783159494400024
-6.162965746625559e-06 -0.02213362231850624 -0.14765328168869019
2.0634174688893836e-06 0.007377821020781994 -0.14765328168869019
-0.02213357575237751 6.129301254986785e-06 -0.14765328168869019
0.00737786665558815 -2.096600383083569e-06 -0.14765328168869019
0.029505277052521706 -0.022141847759485245 -0.05335718393325806
0.02951350435614586 0.00736959557980299 -0.05335718393325806
0.029511447995901108 -8.266267286671791e-06 -0.12407925724983215
0.029511447995901108 -8.266267286671791e-06 -0.029783159494400024
0.02214181236922741 0.029505234211683273 -0.05335718393325806
-0.0073696281760931015 0.029513457790017128 -0.05335718393325806
8.234526831074618e-06 0.029511403292417526 -0.12407925724983215
8.234526831074618e-06 0.029511403292417526 -0.029783159494400024
-0.022141799330711365 -0.029505310580134392 -0.053357187658548355
0.007369639817625284 -0.029513537883758545 -0.05335718393325806
-8.216316018661018e-06 -0.029511481523513794 -0.12407925724983215
-8.219200935855042e-06 -0.029511479660868645 -0.029783159494400024
-0.02950526773929596 0.022141769528388977 -0.053357191383838654
-0.029513491317629814 -0.007369674276560545 -0.053357191383838654
-0.029511433094739914 8.187460480257869e-06 -0.12407925724983215
-0.029511433094739914 8.187460480257869e-06 -0.02978316694498062
0.007386093959212303 0.029509348794817924 -0.14765328168869019
0.029509391635656357 -0.007386127021163702 -0.14765328168869019
-0.007386079523712397 -0.029509425163269043 -0.14765328168869019
-0.02950938232243061 0.007386047393083572 -0.14765328168869019
-0.0073696281760931015 0.029513457790017128 0.05075211822986603
0.02951350435614586 0.00736959557980299 0.05075211822986603
0.007369640748947859 -0.029513537883758545 0.05075211822986603
-0.029513491317629814 -0.007369674276560545 0.05075211822986603
-0.02950320951640606 0.02951962873339653 -0.02978316694498062
0.02951967529952526 0.029503175988793373 -0.07693121582269669
-0.029519658535718918 -0.02950325421988964 -0.02978316694498062
0.029503220692276955 -0.029519708827137947 -0.07693121582269669
-0.022125350311398506 0.02951757051050663 -0.14765328168869019
0.02951761893928051 0.02212531864643097 -0.14765328168869019
0.0221253614872694 -0.029517650604248047 -0.14765328168869019
-0.029517604038119316 -0.022125395014882088 -0.14765328168869019
0.02214181423187256 0.029505234211683273 0.05075211822986603
0.029505277052521706 -0.022141847759485245 0.05075211822986603
-0.022141799330711365 -0.029505310580134392 0.05075211822986603
-0.02950526773929596 0.022141769528388977 0.05075211822986603
-0.02950320951640606 0.02951962873339653 -0.12407925724983215
0.02951967529952526 0.029503175988793373 0.017364881932735443
-0.029519658535718918 -0.02950325421988964 -0.12407925724983215
0.029503220692276955 -0.029519708827137947 0.017364881932735443
-2.0497739114944125e-06 -0.007377900183200836 -0.14765328168869019
6.176368515298236e-06 0.022133545950055122 -0.14765328168869019
-0.007377853151410818 2.016590997300227e-06 -0.14765328168869019
0.022133586928248405 -6.2090707615425345e-06 -0.14765328168869019
0.029509391635656357 -0.007386127021163702 -0.05335718393325806
0.02951761893928051 0.02212531864643097 -0.05335718393325806
0.029511447995901108 -8.266267286671791e-06 -0.07693121582269669
0.029511447995901108 -8.266267286671791e-06 0.017364881932735443
0.007386093959212303 0.029509348794817924 -0.05335718393325806
-0.022125350311398506 0.02951757051050663 -0.053357187658548355
8.234526831074618e-06 0.029511403292417526 -0.07693121582269669
8.234526831074618e-06 0.029511403292417526 0.017364881932735443
-0.007386079523712397 -0.029509425163269043 -0.05335718393325806
0.0221253614872694 -0.029517650604248047 -0.05335718393325806
-8.216316018661018e-06 -0.029511481523513794 -0.07693121582269669
-8.219200935855042e-06 -0.029511479660868645 0.017364881932735443
-0.02950938232243061 0.007386047393083572 -0.053357191383838654
-0.029517604038119316 -0.022125395014882088 -0.053357191383838654
-0.029511433094739914 8.187460480257869e-06 -0.07693121582269669
-0.029511433094739914 8.187460480257869e-06 0.017364874482154846
-0.029513491317629814 -0.007369674276560545 -0.006209142506122589
-0.029517604038119316 -0.022125395014882088 -0.006209142506122589
-0.029515545815229416 -0.014747535809874535 -0.02978316694498062
-0.029515545815229416 -0.014747535809874535 0.017364874482154846
-0.029513491317629814 -0.007369674276560545 -0.10050523281097412
-0.029517604038119316 -0.022125395014882088 -0.10050523281097412
-0.029515545815229416 -0.014747535809874535 -0.12407925724983215
-0.029515545815229416 -0.014747535809874535 -0.07693121582269669
-0.02950526773929596 0.022141769528388977 -0.10050523281097412
-0.02950938232243061 0.007386047393083572 -0.10050523281097412
-0.02950732409954071 0.014763908460736275 -0.12407925724983215
-0.02950732409954071 0.014763908460736275 -0.07693121582269669
0.007369642145931721 -0.029513536021113396 -0.006209138780832291
0.0221253614872694 -0.029517650604248047 -0.006209138780832291
0.014747503213584423 -0.029515596106648445 -0.029783159494400024
0.014747503213584423 -0.029515596106648445 0.017364881932735443
0.007369639817625284 -0.029513537883758545 -0.10050523281097412
0.0221253614872694 -0.029517650604248047 -0.10050523281097412
0.014747503213584423 -0.029515596106648445 -0.12407925724983215
0.014747503213584423 -0.029515596106648445 -0.07693121582269669
-0.022141799330711365 -0.029505310580134392 -0.10050523281097412
-0.007386079523712397 -0.029509425163269043 -0.10050523281097412
-0.014763939194381237 -0.029507368803024292 -0.12407925724983215
-0.014763939194381237 -0.029507368803024292 -0.07693121582269669
-0.0073696281760931015 0.029513457790017128 -0.006209138780832291
-0.022125350311398506 0.02951757051050663 -0.006209142506122589
-0.01474748831242323 0.029515516012907028 -0.02978316694498062
-0.01474748831242323 0.029515516012907028 0.017364881932735443
-0.0073696281760931015 0.029513457790017128 -0.10050523281097412
-0.022125350311398506 0.02951757051050663 -0.10050523281097412
-0.01474748831242323 0.029515516012907028 -0.12407925724983215
-0.01474748831242323 0.029515516012907028 -0.07693121582269669
0.02214181236922741 0.029505234211683273 -0.10050523281097412
0.007386093959212303 0.029509348794817924 -0.10050523281097412
0.01476395595818758 0.029507292434573174 -0.12407925724983215
0.01476395595818758 0.029507292434573174 -0.07693121582269669
0.02951350435614586 0.00736959557980299 -0.006209138780832291
0.02951761893928051 0.02212531864643097 -0.006209138780832291
0.02951556257903576 0.014747455716133118 -0.029783159494400024
0.02951556071639061 0.014747457578778267 0.017364881932735443
0.02951350435614586 0.00736959557980299 -0.10050523281097412
0.02951761893928051 0.02212531864643097 -0.10050523281097412
0.02951556257903576 0.014747455716133118 -0.12407925724983215
0.02951556257903576 0.014747455716133118 -0.07693121582269669
0.029505277052521706 -0.022141847759485245 -0.10050523281097412
0.029509391635656357 -0.007386127021163702 -0.10050523281097412
0.029507337138056755 -0.014763987623155117 -0.12407925724983215
0.029507337138056755 -0.014763987623155117 -0.07693121582269669
0.013198918662965298 0.00659484788775444 -0.14765328168869019
0.01476189773529768 0.02212943136692047 -0.14765328168869019
0.006602215114980936 0.01319523062556982 -0.14765328168869019
0.022137701511383057 0.014749511145055294 -0.14765328168869019
-0.013195255771279335 0.006602203939110041 -0.14765328168869019
-0.01474954467266798 0.022137656807899475 -0.14765328168869019
-0.022129463031888008 0.014761850237846375 -0.14765328168869019
-0.006594873499125242 0.013198908418416977 -0.14765328168869019
-0.014761881902813911 -0.02212950773537159 -0.14765328168869019
-0.013198932632803917 -0.00659488420933485 -0.14765328168869019
-0.022137686610221863 -0.014749591238796711 -0.14765328168869019
-0.0066022309474647045 -0.01319526694715023 -0.14765328168869019
0.0147495586425066 -0.022137735038995743 -0.14765328168869019
0.013195240870118141 -0.006602240726351738 -0.14765328168869019
0.006594856735318899 -0.013198946602642536 -0.14765328168869019
0.022129476070404053 -0.014761930331587791 -0.14765328168869019
0.029505277052521706 -0.022141847759485245 -0.006209138780832291
0.029509391635656357 -0.007386127021163702 -0.006209138780832291
0.029507337138056755 -0.014763987623155117 -0.029783159494400024
0.029507337138056755 -0.014763987623155117 0.017364881932735443
0.02214181236922741 0.029505234211683273 -0.006209138780832291
0.007386093959212303 0.029509348794817924 -0.006209138780832291
0.01476395595818758 0.029507292434573174 -0.029783159494400024
0.01476395595818758 0.029507292434573174 0.017364881932735443
-0.022141799330711365 -0.029505310580134392 -0.006209142506122589
-0.007386079523712397 -0.029509425163269043 -0.006209138780832291
-0.014763939194381237 -0.029507368803024292 -0.02978316694498062
-0.014763939194381237 -0.029507368803024292 0.017364881932735443
-0.02950526773929596 0.022141769528388977 -0.006209142506122589
-0.02950938232243061 0.007386047393083572 -0.006209142506122589
-0.02950732409954071 0.014763908460736275 -0.02978316694498062
-0.02950732409954071 0.014763908460736275 0.017364874482154846
-0.02950938232243061 0.007386047393083572 0.017364874482154846
-0.02950938232243061 0.007386047393083572 -0.02978316694498062
-0.02950526773929596 0.022141769528388977 -0.02978316694498062
-0.007386079523712397 -0.029509425163269043 0.017364881932735443
-0.007386079523712397 -0.029509425163269043 -0.02978316694498062
-0.022141799330711365 -0.029505310580134392 -0.02978316694498062
0.007386093959212303 0.029509348794817924 0.017364881932735443
0.007386093959212303 0.029509348794817924 -0.029783159494400024
0.02214181236922741 0.029505234211683273 -0.029783159494400024
0.029509391635656357 -0.007386127021163702 0.017364881932735443
0.029509391635656357 -0.007386127021163702 -0.029783159494400024
0.029505277052521706 -0.022141847759485245 -0.029783159494400024
0.022131530568003654 -0.007384070195257664 -0.14765328168869019
0.007375810761004686 -0.007379956543445587 -0.14765328168869019
0.007371695712208748 -0.022135678678750992 -0.14765328168869019
-0.007379909045994282 -0.007375843357294798 -0.14765328168869019
-0.02213563211262226 -0.007371730171144009 -0.14765328168869019
-0.022139744833111763 -0.022127453237771988 -0.14765328168869019
-0.0073716831393539906 0.022135598585009575 -0.14765328168869019
-0.022127406671643257 0.022139711305499077 -0.14765328168869019
-0.02213151939213276 0.007383991032838821 -0.14765328168869019
0.022139759734272957 0.02212737314403057 -0.14765328168869019
0.00738403620198369 0.022131485864520073 -0.14765328168869019
0.007379924412816763 0.007375764194875956 -0.14765328168869019
0.029509391635656357 -0.007386127021163702 -0.07693121582269669
0.029509391635656357 -0.007386127021163702 -0.12407925724983215
0.029505277052521706 -0.022141847759485245 -0.12407925724983215
0.02951761893928051 0.02212531864643097 -0.07693121582269669
0.02951761893928051 0.02212531864643097 -0.12407925724983215
0.02951350435614586 0.00736959557980299 -0.12407925724983215
0.02951761893928051 0.02212531864643097 0.017364881932735443
0.02951761893928051 0.02212531864643097 -0.029783159494400024
0.02951350435614586 0.00736959557980299 -0.029783159494400024
0.007386093959212303 0.029509348794817924 -0.07693121582269669
0.007386093959212303 0.029509348794817924 -0.12407925724983215
0.02214181236922741 0.029505234211683273 -0.12407925724983215
-0.022125350311398506 0.02951757051050663 -0.07693121582269669
-0.022125350311398506 0.02951757051050663 -0.12407925724983215
-0.0073696281760931015 0.029513457790017128 -0.12407925724983215
-0.022125350311398506 0.02951757051050663 0.017364874482154846
-0.022125350311398506 0.02951757051050663 -0.02978316694498062
-0.0073696281760931015 0.029513457790017128 -0.02978316694498062
-0.007386079523712397 -0.029509425163269043 -0.07693121582269669
-0.007386079523712397 -0.029509425163269043 -0.12407925724983215
-0.022141799330711365 -0.029505310580134392 -0.12407925724983215
0.0221253614872694 -0.029517650604248047 -0.07693121582269669
0.0221253614872694 -0.029517650604248047 -0.12407925724983215
0.007369639817625284 -0.029513537883758545 -0.12407925724983215
0.0221253614872694 -0.029517650604248047 0.017364881932735443
0.0221253614872694 -0.029517650604248047 -0.029783159494400024
0.007369640748947859 -0.029513537883758545 -0.029783159494400024
-0.02950938232243061 0.007386047393083572 -0.07693121582269669
-0.02950938232243061 0.007386047393083572 -0.12407925724983215
-0.02950526773929596 0.022141769528388977 -0.12407925724983215
-0.029517604038119316 -0.022125395014882088 -0.07693121582269669
-0.029517604038119316 -0.022125395014882088 -0.12407925724983215
-0.029513491317629814 -0.007369674276560545 -0.12407925724983215
-0.029517604038119316 -0.022125395014882088 0.017364874482154846
-0.029517604038119316 -0.022125395014882088 -0.02978316694498062
-0.029513491317629814 -0.007369674276560545 -0.02978316694498062
-0.029513491317629814 -0.007369674276560545 0.017364874482154846
-0.029513491317629814 -0.007369674276560545 -0.07693121582269669
-0.02950526773929596 0.022141769528388977 -0.07693121582269669
0.007369640748947859 -0.029513537883758545 0.017364881932735443
0.007369639817625284 -0.029513537883758545 -0.07693121582269669
-0.022141799330711365 -0.029505310580134392 -0.07693121582269669
-0.0073696281760931015 0.029513457790017128 0.017364881932735443
-0.0073696281760931015 0.029513457790017128 -0.07693121582269669
0.02214181236922741 0.029505234211683273 -0.07693121582269669
0.02951350435614586 0.00736959557980299 0.017364881932735443
0.02951350435614586 0.00736959557980299 -0.07693121582269669
0.029505277052521706 -0.022141847759485245 -0.07693121582269669
0.022135643288493156 0.007371650077402592 -0.14765328168869019
-0.007375796791166067 0.0073798769153654575 -0.14765328168869019
-0.007384021766483784 -0.02213156409561634 -0.14765328168869019
0.022127419710159302 -0.022139789536595345 -0.14765328168869019
0.029505277052521706 -0.022141847759485245 0.017364881932735443
0.02214181236922741 0.029505234211683273 0.017364881932735443
-0.022141799330711365 -0.029505310580134392 0.017364874482154846
-0.02950526773929596 0.022141769528388977 0.017364874482154846
0.011216850019991398 0.011033101938664913 0.06853412091732025
-0.010974220000207424 0.011039289645850658 0.06853412091732025
0.011210661381483078 -0.011157967150211334 0.06853412091732025
-0.015087025240063667 4.117790467716986e-06 0.06853412091732025
-4.231010279909242e-06 -0.015087089501321316 0.06853412091732025
0.015086978673934937 -4.295352482586168e-06 0.06853412091732025
4.1816583689069375e-06 0.015086911618709564 0.06853412091732025
-0.01098040584474802 -0.011151781305670738 0.06853412091732025
4.1816583689069375e-06 0.015086911618709564 0.06853412091732025
0.015086978673934937 -4.295352482586168e-06 0.06853412091732025
-4.231010279909242e-06 -0.015087089501321316 0.06853412091732025
-0.015087025240063667 4.117790467716986e-06 0.06853412091732025
-0.015087025240063667 4.117790467716986e-06 0.06853412091732025
-4.231010279909242e-06 -0.015087089501321316 0.06853412091732025
0.015086978673934937 -4.295352482586168e-06 0.06853412091732025
4.1816583689069375e-06 0.015086911618709564 0.06853412091732025
0.011216850019991398 0.011033101938664913 0.06853412091732025
0.011210661381483078 -0.011157967150211334 0.06853412091732025
-0.01098040584474802 -0.011151781305670738 0.06853412091732025
-0.010974220000207424 0.011039289645850658 0.06853412091732025
-0.015087025240063667 4.117790467716986e-06 0.06853412091732025
4.1816583689069375e-06 0.015086911618709564 0.06853412091732025
-4.231010279909242e-06 -0.015087089501321316 0.06853412091732025
-0.015087025240063667 4.117790467716986e-06 0.06853412091732025
0.015086978673934937 -4.295352482586168e-06 0.06853412091732025
4.1816583689069375e-06 0.015086911618709564 0.06853412091732025
-4.231010279909242e-06 -0.015087089501321316 0.06853412091732025
0.015086978673934937 -4.295352482586168e-06 0.06853412091732025
0.011216850019991398 0.011033101938664913 0.06853412091732025
-0.010974220000207424 0.011039289645850658 0.06853412091732025
0.011210661381483078 -0.011157967150211334 0.06853412091732025
-0.013491528108716011 0.006750385742634535 0.06853412091732025
-0.006750485394150019 -0.013491553254425526 0.06853412091732025
0.013017949648201466 -0.006513597443699837 0.06853412091732025
0.006750410422682762 0.013491431251168251 0.06853412091732025
-0.01098040584474802 -0.011151781305670738 0.06853412091732025
0.006750410422682762 0.013491431251168251 0.06853412091732025
0.013017949648201466 -0.006513597443699837 0.06853412091732025
-0.006750485394150019 -0.013491553254425526 0.06853412091732025
-0.013491528108716011 0.006750385742634535 0.06853412091732025
-0.013491528108716011 0.006750385742634535 0.06853412091732025
-0.006750485394150019 -0.013491553254425526 0.06853412091732025
0.013017949648201466 -0.006513597443699837 0.06853412091732025
0.006750410422682762 0.013491431251168251 0.06853412091732025
0.011216850019991398 0.011033101938664913 0.06853412091732025
0.011210661381483078 -0.011157967150211334 0.06853412091732025
-0.01098040584474802 -0.011151781305670738 0.06853412091732025
-0.010974220000207424 0.011039289645850658 0.06853412091732025
0.011216850019991398 0.011033101938664913 0.06853412091732025
-0.010974220000207424 0.011039289645850658 0.06853412091732025
0.011210661381483078 -0.011157967150211334 0.06853412091732025
-0.013495287857949734 -0.006742986384779215 0.06853412091732025
0.006742887198925018 -0.01349531952291727 0.06853412091732025
0.013495218940079212 0.006742862984538078 0.06853412091732025
-0.006742960307747126 0.013495192863047123 0.06853412091732025
-0.01098040584474802 -0.011151781305670738 0.06853412091732025
-0.006742960307747126 0.013495192863047123 0.06853412091732025
0.013495218940079212 0.006742862984538078 0.06853412091732025
0.006742887198925018 -0.01349531952291727 0.06853412091732025
-0.013495287857949734 -0.006742986384779215 0.06853412091732025
-0.013495287857949734 -0.006742986384779215 0.06853412091732025
0.006742887198925018 -0.01349531952291727 0.06853412091732025
0.013495218940079212 0.006742862984538078 0.06853412091732025
-0.006742960307747126 0.013495192863047123 0.06853412091732025
0.011216850019991398 0.011033101938664913 0.06853412091732025
0.011210661381483078 -0.011157967150211334 0.06853412091732025
-0.01098040584474802 -0.011151781305670738 0.06853412091732025
-0.010974220000207424 0.011039289645850658 0.06853412091732025
-0.015087025240063667 4.117790467716986e-06 0.06853412091732025
-0.015087025240063667 4.117790467716986e-06 0.06853412091732025
-0.013491528108716011 0.006750385742634535 0.06853412091732025
-0.013495287857949734 -0.006742986384779215 0.06853412091732025
4.1816583689069375e-06 0.015086911618709564 0.06853412091732025
4.1816583689069375e-06 0.015086911618709564 0.06853412091732025
0.006750410422682762 0.013491431251168251 0.06853412091732025
-0.006742960307747126 0.013495192863047123 0.06853412091732025
-4.231010279909242e-06 -0.015087089501321316 0.06853412091732025
-4.231010279909242e-06 -0.015087089501321316 0.06853412091732025
-0.006750485394150019 -0.013491553254425526 0.06853412091732025
0.006742887198925018 -0.01349531952291727 0.06853412091732025
-0.015087025240063667 4.117790467716986e-06 0.06853412091732025
-0.015087025240063667 4.117790467716986e-06 0.06853412091732025
-0.013491528108716011 0.006750385742634535 0.06853412091732025
-0.013495287857949734 -0.006742986384779215 0.06853412091732025
0.015086978673934937 -4.295352482586168e-06 0.06853412091732025
0.015086978673934937 -4.295352482586168e-06 0.06853412091732025
0.013017949648201466 -0.006513597443699837 0.06853412091732025
0.013495218940079212 0.006742862984538078 0.06853412091732025
4.1816583689069375e-06 0.015086911618709564 0.06853412091732025
4.1816583689069375e-06 0.015086911618709564 0.06853412091732025
0.006750410422682762 0.013491431251168251 0.06853412091732025
-0.006742960307747126 0.013495192863047123 0.06853412091732025
-4.231010279909242e-06 -0.015087089501321316 0.06853412091732025
-4.231010279909242e-06 -0.015087089501321316 0.06853412091732025
-0.006750485394150019 -0.013491553254425526 0.06853412091732025
0.006742887198925018 -0.01349531952291727 0.06853412091732025
0.015086978673934937 -4.295352482586168e-06 0.06853412091732025
0.015086978673934937 -4.295352482586168e-06 0.06853412091732025
0.013017949648201466 -0.006513597443699837 0.06853412091732025
0.013495218940079212 0.006742862984538078 0.06853412091732025
0.013495218940079212 0.006742862984538078 0.06853412091732025
0.013017949648201466 -0.006513597443699837 0.06853412091732025
0.013017949648201466 -0.006513597443699837 0.06853412091732025
0.006742887198925018 -0.01349531952291727 0.06853412091732025
-0.006750485394150019 -0.013491553254425526 0.06853412091732025
-0.006750485394150019 -0.013491553254425526 0.06853412091732025
-0.006742960307747126 0.013495192863047123 0.06853412091732025
0.006750410422682762 0.013491431251168251 0.06853412091732025
0.006750410422682762 0.013491431251168251 0.06853412091732025
0.013495218940079212 0.006742862984538078 0.06853412091732025
0.013017949648201466 -0.006513597443699837 0.06853412091732025
0.013017949648201466 -0.006513597443699837 0.06853412091732025
-0.013495287857949734 -0.006742986384779215 0.06853412091732025
-0.013491528108716011 0.006750385742634535 0.06853412091732025
-0.013491528108716011 0.006750385742634535 0.06853412091732025
0.006742887198925018 -0.01349531952291727 0.06853412091732025
-0.006750485394150019 -0.013491553254425526 0.06853412091732025
-0.006750485394150019 -0.013491553254425526 0.06853412091732025
-0.006742960307747126 0.013495192863047123 0.06853412091732025
0.006750410422682762 0.013491431251168251 0.06853412091732025
0.006750410422682762 0.013491431251168251 0.06853412091732025
-0.013495287857949734 -0.006742986384779215 0.06853412091732025
-0.013491528108716011 0.006750385742634535 0.06853412091732025
-0.013491528108716011 0.006750385742634535 0.06853412091732025
-0.013495287857949734 -0.006742986384779215 0.06853412091732025
-0.006742960307747126 0.013495192863047123 0.06853412091732025
0.006742887198925018 -0.01349531952291727 0.06853412091732025
-0.013495287857949734 -0.006742986384779215 0.06853412091732025
0.013495218940079212 0.006742862984538078 0.06853412091732025
-0.006742960307747126 0.013495192863047123 0.06853412091732025
0.006742887198925018 -0.01349531952291727 0.06853412091732025
0.013495218940079212 0.006742862984538078 0.06853412091732025
0.005600052885711193 -0.01351985801011324 0.095499686896801
0.002854826394468546 -0.014352608472108841 0.095499686896801
-0.012167642824351788 0.008130443282425404 0.095499686896801
-0.010347703471779823 0.010347998701035976 0.095499686896801
8.705518439455773e-08 0.014634092338383198 0.095499686896801
0.0028550042770802975 0.014352899976074696 0.095499686896801
0.00813010148704052 -0.012167571112513542 0.095499686896801
-0.013519980013370514 0.005600443109869957 0.095499686896801
0.010347673669457436 -0.01034765038639307 0.095499686896801
-0.014352739788591862 0.002855209633708 0.095499686896801
0.012167615815997124 -0.008130095899105072 0.095499686896801
-0.014633948914706707 2.753620265139034e-07 0.095499686896801
0.0135199511423707 -0.0056000943295657635 0.095499686896801
-0.014352778904139996 -0.002854666905477643 0.095499686896801
0.014352710917592049 -0.0028548615518957376 0.095499686896801
-0.013520047068595886 -0.0055999113246798515 0.095499686896801
0.014633920043706894 7.285581204996561e-08 0.095499686896801
-0.012167728506028652 -0.00812991801649332 0.095499686896801
0.014352750033140182 0.0028550168499350548 0.095499686896801
-0.010347845032811165 -0.010347524657845497 0.095499686896801
0.01351999957114458 0.00560024194419384 0.095499686896801
-0.008130287751555443 -0.012167469598352909 0.095499686896801
0.012167716398835182 0.008130284957587719 0.095499686896801
-0.00560028338804841 -0.013519810512661934 0.095499686896801
-0.0028548550326377153 0.014352920465171337 0.095499686896801
0.010347798466682434 0.010347859002649784 0.095499686896801
-0.002855050377547741 -0.014352569356560707 0.095499686896801
-0.005600090604275465 0.0135201970115304 0.095499686896801
0.008130240254104137 0.012167798355221748 0.095499686896801
-9.629502528696321e-08 -0.01463376171886921 0.095499686896801
-0.008130097761750221 0.012167878448963165 0.095499686896801
0.005600235424935818 0.013520140200853348 0.095499686896801
-0.02950320951640606 0.02951962873339653 0.027256879955530167
-0.029519658535718918 -0.02950325421988964 0.027256879955530167
0.02951967529952526 0.029503175988793373 0.027256883680820465
0.029503220692276955 -0.029519708827137947 0.027256883680820465
0.029511447995901108 -8.266267286671791e-06 0.027256883680820465
8.234526831074618e-06 0.029511403292417526 0.027256883680820465
-8.219200935855042e-06 -0.029511479660868645 0.027256883680820465
-0.029511433094739914 8.187460480257869e-06 0.027256879955530167
-0.029515545815229416 -0.014747535809874535 0.027256879955530167
0.014747503213584423 -0.029515596106648445 0.027256883680820465
-0.01474748831242323 0.029515516012907028 0.027256883680820465
0.02951556071639061 0.014747457578778267 0.027256883680820465
0.029507337138056755 -0.014763987623155117 0.027256883680820465
0.01476395595818758 0.029507292434573174 0.027256883680820465
-0.014763940125703812 -0.029507368803024292 0.027256883680820465
-0.02950732409954071 0.014763908460736275 0.027256879955530167
-0.02950938232243061 0.007386047393083572 0.027256879955530167
-0.007386079523712397 -0.029509425163269043 0.027256883680820465
0.007386094890534878 0.029509346932172775 0.027256883680820465
0.029509391635656357 -0.007386127021163702 0.027256883680820465
0.02951761893928051 0.02212531864643097 0.027256883680820465
-0.022125350311398506 0.02951757051050663 0.027256879955530167
0.0221253614872694 -0.029517650604248047 0.027256883680820465
-0.029517604038119316 -0.022125395014882088 0.027256879955530167
-0.029513491317629814 -0.007369674276560545 0.027256879955530167
0.007369640748947859 -0.029513537883758545 0.027256883680820465
-0.0073696281760931015 0.029513457790017128 0.027256883680820465
0.02951350435614586 0.00736959557980299 0.027256883680820465
0.029505277052521706 -0.022141847759485245 0.027256883680820465
0.02214181423187256 0.029505234211683273 0.027256883680820465
-0.022141799330711365 -0.029505310580134392 0.027256879955530167
-0.02950526773929596 0.022141769528388977 0.027256879955530167
7.907732424428104e-08 0.011689050123095512 0.1117926836013794
-0.0022803153842687607 0.011464462615549564 0.1117926836013794
-0.004473081789910793 0.01079932227730751 0.1117926836013794
-0.006493933964520693 0.009719151072204113 0.1117926836013794
-0.008265255019068718 0.008265516720712185 0.1117926836013794
-0.0097189387306571 0.0064942361786961555 0.1117926836013794
-0.010799122042953968 0.004473390057682991 0.1117926836013794
-0.011464291252195835 0.0022806257475167513 0.1117926836013794
-0.01168891042470932 2.3646309443847713e-07 0.1117926836013794
-0.011464322917163372 -0.0022801575250923634 0.1117926836013794
-0.010799175128340721 -0.0044729323126375675 0.1117926836013794
-0.009719004854559898 -0.006493783090263605 0.1117926836013794
-0.008265367709100246 -0.00826510600745678 0.1117926836013794
-0.006494085304439068 -0.009718791581690311 0.1117926836013794
-0.0044732363894581795 -0.010798979550600052 0.1117926836013794
-0.0022804713808000088 -0.011464147828519344 0.1117926836013794
-6.507363536911726e-08 -0.011688750237226486 0.1117926836013794
0.0022803135216236115 -0.011464179493486881 0.1117926836013794
0.004473071079701185 -0.010799017734825611 0.1117926836013794
0.006493957247585058 -0.009718871675431728 0.1117926836013794
0.00826525129377842 -0.008265203796327114 0.1117926836013794
0.009718936868011951 -0.006493924651294947 0.1117926836013794
0.010799119248986244 -0.004473076667636633 0.1117926836013794
0.011464287526905537 -0.002280313288792968 0.1117926836013794
0.011688906699419022 7.63722951546697e-08 0.1117926836013794
0.011464319191873074 0.002280471846461296 0.1117926836013794
0.010799158364534378 0.004473230801522732 0.1117926836013794
0.00971901509910822 0.0064941104501485825 0.1117926836013794
0.008265349082648754 0.008265405893325806 0.1117926836013794
0.006494067143648863 0.009719089604914188 0.1117926836013794
0.0044732172973454 0.010799276642501354 0.1117926836013794
0.002280453685671091 0.011464446783065796 0.1117926836013794
7.907732424428104e-08 0.011689050123095512 0.09603165090084076
-0.0022803153842687607 0.011464462615549564 0.09603165090084076
-0.004473081789910793 0.01079932227730751 0.09603165090084076
-0.006493933964520693 0.009719151072204113 0.09603165090084076
-0.008265255019068718 0.008265516720712185 0.09603165090084076
-0.0097189387306571 0.0064942361786961555 0.09603165090084076
-0.010799122042953968 0.004473390057682991 0.09603165090084076
-0.011464291252195835 0.0022806257475167513 0.09603165090084076
-0.01168891042470932 2.3646309443847713e-07 0.09603165090084076
-0.011464322917163372 -0.0022801575250923634 0.09603165090084076
-0.010799175128340721 -0.0044729323126375675 0.09603165090084076
-0.009719004854559898 -0.006493783090263605 0.09603165090084076
-0.008265367709100246 -0.00826510600745678 0.09603165090084076
-0.006494085304439068 -0.009718791581690311 0.09603165090084076
-0.0044732363894581795 -0.010798979550600052 0.09603165090084076
-0.0022804713808000088 -0.011464147828519344 0.09603165090084076
-6.507363536911726e-08 -0.011688750237226486 0.09603165090084076
0.0022803135216236115 -0.011464179493486881 0.09603165090084076
0.004473071079701185 -0.010799017734825611 0.09603165090084076
0.006493957247585058 -0.009718871675431728 0.09603165090084076
0.00826525129377842 -0.008265203796327114 0.09603165090084076
0.009718936868011951 -0.006493924651294947 0.09603165090084076
0.010799119248986244 -0.004473076667636633 0.09603165090084076
0.011464287526905537 -0.002280313288792968 0.09603165090084076
0.011688906699419022 7.63722951546697e-08 0.09603165090084076
0.011464319191873074 0.002280471846461296 0.09603165090084076
0.010799158364534378 0.004473230801522732 0.09603165090084076
0.00971901509910822 0.0064941104501485825 0.09603165090084076
0.008265349082648754 0.008265405893325806 0.09603165090084076
0.006494067143648863 0.009719089604914188 0.09603165090084076
0.0044732172973454 0.010799276642501354 0.09603165090084076
0.002280453685671091 0.011464446783065796 0.09603165090084076
6.863687929126172e-08 0.010145788080990314 0.09603165090084076
-0.0019792490638792515 0.009950852021574974 0.09603165090084076
-0.003882508259266615 0.009373528882861137 0.09603165090084076
-0.005636550486087799 0.008435971103608608 0.09603165090084076
-0.007174007128924131 0.007174257654696703 0.09603165090084076
-0.008435763418674469 0.005636836402118206 0.09603165090084076
-0.009373331442475319 0.0038827992975711823 0.09603165090084076
-0.00995067972689867 0.0019795421976596117 0.09603165090084076
-0.010145642794668674 2.2885177486386965e-07 0.09603165090084076
-0.009950707666575909 -0.0019790884107351303 0.09603165090084076
-0.00937337800860405 -0.003882354823872447 0.09603165090084076
-0.008435821160674095 -0.005636395886540413 0.09603165090084076
-0.007174104917794466 -0.0071738543920218945 0.09603165090084076
-0.00563668180257082 -0.008435611613094807 0.09603165090084076
-0.0038826423697173595 -0.00937318429350853 0.09603165090084076
-0.001979384571313858 -0.009950531646609306 0.09603165090084076
-5.6482072352537216e-08 -0.010145480744540691 0.09603165090084076
0.001979247434064746 -0.009950559586286545 0.09603165090084076
0.0038824989460408688 -0.009373217821121216 0.09603165090084076
0.005636570975184441 -0.008435681462287903 0.09603165090084076
0.00717400386929512 -0.0071739391423761845 0.09603165090084076
0.00843576155602932 -0.005636518821120262 0.09603165090084076
0.00937332957983017 -0.003882480086758733 0.09603165090084076
0.009950676932930946 -0.001979223685339093 0.09603165090084076
0.01014564000070095 8.989749744614528e-08 0.09603165090084076
0.00995070394128561 0.0019794085528701544 0.09603165090084076
0.009373363107442856 0.0038826612289994955 0.09603165090084076
0.008435829542577267 0.005636727437376976 0.09603165090084076
0.00717408861964941 0.0071741617284715176 0.09603165090084076
0.005636666435748339 0.008435918018221855 0.09603165090084076
0.00388262583874166 0.009373489767313004 0.09603165090084076
0.001979369204491377 0.009950838051736355 0.09603165090084076
6.863687929126172e-08 0.010145788080990314 0.06589151173830032
-0.0019792490638792515 0.009950852021574974 0.06589151173830032
-0.003882508259266615 0.009373528882861137 0.06589151173830032
-0.005636550486087799 0.008435971103608608 0.06589151173830032
-0.007174007128924131 0.007174257654696703 0.06589151173830032
-0.008435763418674469 0.005636836402118206 0.06589151173830032
-0.009373331442475319 0.0038827992975711823 0.06589151173830032
-0.00995067972689867 0.0019795421976596117 0.06589151173830032
-0.010145642794668674 2.2885177486386965e-07 0.06589151173830032
-0.009950707666575909 -0.0019790884107351303 0.06589151173830032
-0.00937337800860405 -0.003882354823872447 0.06589151173830032
-0.008435821160674095 -0.005636395886540413 0.06589151173830032
-0.007174104917794466 -0.0071738543920218945 0.06589151173830032
-0.00563668180257082 -0.008435611613094807 0.06589151173830032
-0.0038826423697173595 -0.00937318429350853 0.06589151173830032
-0.001979384571313858 -0.009950531646609306 0.06589151173830032
-5.6482072352537216e-08 -0.010145480744540691 0.06589151173830032
0.001979247434064746 -0.009950559586286545 0.06589151173830032
0.0038824989460408688 -0.009373217821121216 0.06589151173830032
0.005636570975184441 -0.008435681462287903 0.06589151173830032
0.00717400386929512 -0.0071739391423761845 0.06589151173830032
0.00843576155602932 -0.005636518821120262 0.06589151173830032
0.00937332957983017 -0.003882480086758733 0.06589151173830032
0.009950676932930946 -0.001979223685339093 0.06589151173830032
0.01014564000070095 8.989749744614528e-08 0.06589151173830032
0.00995070394128561 0.0019794085528701544 0.06589151173830032
0.009373363107442856 0.0038826612289994955 0.06589151173830032
0.008435829542577267 0.005636727437376976 0.06589151173830032
0.00717408861964941 0.0071741617284715176 0.06589151173830032
0.005636666435748339 0.008435918018221855 0.06589151173830032
0.00388262583874166 0.009373489767313004 0.06589151173830032
0.001979369204491377 0.009950838051736355 0.06589151173830032
1.5694412525135704e-07 0.023199141025543213 0.05172927677631378
-0.004525723401457071 0.022753402590751648 0.05172927677631378
-0.008877689018845558 0.021433303132653236 0.05172927677631378
-0.012888457626104355 0.019289497286081314 0.05172927677631378
-0.016403984278440475 0.01640448160469532 0.05172927677631378
-0.01928909868001938 0.012889035046100616 0.05172927677631378
-0.02143292874097824 0.008878277614712715 0.05172927677631378
-0.02275308594107628 0.004526316653937101 0.05172927677631378
-0.023198885843157768 4.466027689886687e-07 0.05172927677631378
-0.022753149271011353 -0.004525432828813791 0.05172927677631378
-0.021433034911751747 -0.008877415210008621 0.05172927677631378
-0.019289230927824974 -0.012888181023299694 0.05172927677631378
-0.016404207795858383 -0.016403712332248688 0.05172927677631378
-0.012888757511973381 -0.01928882859647274 0.05172927677631378
-0.008877995423972607 -0.021432669833302498 0.05172927677631378
-0.004526033066213131 -0.022752823308110237 0.05172927677631378
-1.2915111824440828e-07 -0.02319859154522419 0.05172927677631378
0.004525719676166773 -0.02275288663804531 0.05172927677631378
0.008877667598426342 -0.021432746201753616 0.05172927677631378
0.012888504192233086 -0.019288988783955574 0.05172927677631378
0.01640397682785988 -0.016403906047344208 0.05172927677631378
0.01928909495472908 -0.012888462282717228 0.05172927677631378
0.021432925015687943 -0.008877701126039028 0.05172927677631378
0.022753078490495682 -0.004525742027908564 0.05172927677631378
0.02319887839257717 1.2887186073839985e-07 0.05172927677631378
0.022753139957785606 0.0045260111801326275 0.05172927677631378
0.02143300138413906 0.00887796189635992 0.05172927677631378
0.019289249554276466 0.01288878545165062 0.05172927677631378
0.0164041705429554 0.01640426181256771 0.05172927677631378
0.01288872305303812 0.019289376214146614 0.05172927677631378
0.008877958171069622 0.021433213725686073 0.05172927677631378
0.004525998141616583 0.02275337092578411 0.05172927677631378
1.5694412525135704e-07 0.023199141025543213 -0.14153949916362762
-0.004525723401457071 0.022753402590751648 -0.14153949916362762
-0.008877689018845558 0.021433303132653236 -0.14153949916362762
-0.012888457626104355 0.019289497286081314 -0.14153949916362762
-0.016403984278440475 0.01640448160469532 -0.14153949916362762
-0.01928909868001938 0.012889035046100616 -0.14153949916362762
-0.02143292874097824 0.008878277614712715 -0.14153949916362762
-0.02275308594107628 0.004526316653937101 -0.14153949916362762
-0.023198885843157768 4.466027689886687e-07 -0.14153949916362762
-0.022753149271011353 -0.004525432828813791 -0.14153949916362762
-0.021433034911751747 -0.008877415210008621 -0.14153949916362762
-0.019289230927824974 -0.012888181023299694 -0.14153949916362762
-0.016404207795858383 -0.016403712332248688 -0.14153949916362762
-0.012888757511973381 -0.01928882859647274 -0.14153949916362762
-0.008877995423972607 -0.021432669833302498 -0.14153949916362762
-0.004526033066213131 -0.022752823308110237 -0.14153949916362762
-1.2915111824440828e-07 -0.02319859154522419 -0.14153949916362762
0.004525719676166773 -0.02275288663804531 -0.14153949916362762
0.008877667598426342 -0.021432746201753616 -0.14153949916362762
0.012888504192233086 -0.019288988783955574 -0.14153949916362762
0.01640397682785988 -0.016403906047344208 -0.14153949916362762
0.01928909495472908 -0.012888462282717228 -0.14153949916362762
0.021432925015687943 -0.008877701126039028 -0.14153949916362762
0.022753078490495682 -0.004525742027908564 -0.14153949916362762
0.02319887839257717 1.2887186073839985e-07 -0.14153949916362762
0.022753139957785606 0.0045260111801326275 -0.14153949916362762
0.02143300138413906 0.00887796189635992 -0.14153949916362762
0.019289249554276466 0.01288878545165062 -0.14153949916362762
0.0164041705429554 0.01640426181256771 -0.14153949916362762
0.01288872305303812 0.019289376214146614 -0.14153949916362762
0.008877958171069622 0.021433213725686073 -0.14153949916362762
0.004525998141616583 0.02275337092578411 -0.14153949916362762
2.444759843456268e-07 0.013080570846796036 -0.14153949916362762
-0.0025515910238027573 0.01282924972474575 -0.14153949916362762
-0.005005368031561375 0.01208493486046791 -0.14153949916362762
-0.00726676732301712 0.010876188986003399 -0.14153949916362762
-0.00924893282353878 0.009249525144696236 -0.14153949916362762
-0.01087565254420042 0.007267404813319445 -0.14153949916362762
-0.012084412388503551 0.005006012041121721 -0.14153949916362762
-0.012828758917748928 0.002552237594500184 -0.14153949916362762
-0.013080115430057049 4.0779474375085556e-07 -0.14153949916362762
-0.012828794308006763 -0.0025514273438602686 -0.14153949916362762
-0.012084471993148327 -0.0050052134320139885 -0.14153949916362762
-0.01087572705000639 -0.007266611326485872 -0.14153949916362762
-0.009249059483408928 -0.009248780086636543 -0.14153949916362762
-0.007266936358064413 -0.010875499807298183 -0.14153949916362762
