0.004166834056377411 0.004166770726442337 -0.06855817884206772
0.004899673163890839 0.00327380932867527 -0.06855817884206772
0.005444223061203957 0.002255023689940572 -0.06855817884206772
0.005779556930065155 0.001149584073573351 -0.06855817884206772
0.00589278619736433 -3.59278331529822e-08 -0.06855817884206772
0.005779556930065155 -0.0011496561346575618 -0.06855817884206772
0.005444223061203957 -0.0022550970315933228 -0.06855817884206772
0.004899673163890839 -0.0032738782465457916 -0.06855817884206772
0.004166834056377411 -0.0041668470948934555 -0.06855817884206772
0.003273865208029747 -0.0048996866680681705 -0.06855817884206772
0.0022550837602466345 -0.005444238428026438 -0.06855817884206772
0.001149641815572977 -0.005779571831226349 -0.06855817884206772
2.1409732653410174e-08 -0.005892793647944927 -0.06855817884206772
-0.0011495999060571194 -0.005779571831226349 -0.06855817884206772
-0.002255041152238846 -0.005444238428026438 -0.06855817884206772
-0.003273822832852602 -0.0048996866680681705 -0.06855817884206772
-0.004166791215538979 -0.0041668470948934555 -0.06855817884206772
-0.004899632651358843 -0.0032738717272877693 -0.06855817884206772
-0.0054441760294139385 -0.002255094703286886 -0.06855817884206772
-0.005779508966952562 -0.0011496510123834014 -0.06855817884206772
-0.00589273776859045 -3.068270970629783e-08 -0.06855817884206772
-0.005779508966952562 0.001149589428678155 -0.06855817884206772
-0.0054441760294139385 0.0022550311405211687 -0.06855817884206772
-0.004899625200778246 0.00327380932867527 -0.06855817884206772
-0.004166783764958382 0.004166778177022934 -0.06855817884206772
-0.003273807931691408 0.004899617284536362 -0.06855817884206772
-0.0022550304420292377 0.005444168578833342 -0.06855817884206772
-0.001149588031694293 0.005779501050710678 -0.06855817884206772
2.095969087179128e-08 0.035419121384620667 -0.04097771272063255
-2.691419309641674e-09 0.03721640259027481 -0.019727880135178566
-2.121784969943974e-09 0.04028243571519852 0.00429694727063179
-3.1860662996763267e-09 0.04295850172638893 0.02300412207841873
0.008380785584449768 0.042133063077926636 0.02300412207841873
0.00785871222615242 0.03950842097401619 0.00429694727063179
0.007260557729750872 0.03650129958987236 -0.019727880135178566
0.006909956224262714 0.03473855182528496 -0.04097771272063255
0.016439523547887802 0.03968847170472145 0.02300412207841873
0.015415438450872898 0.03721611574292183 0.00429694727063179
0.014242114499211311 0.03438347205519676 -0.019727880135178566
0.013554360717535019 0.032722994685173035 -0.04097771272063255
0.02386646717786789 0.03571872040629387 0.02300412207841873
0.02237972430884838 0.033493656665086746 0.00429694727063179
0.020676326006650925 0.0309443362057209 -0.019727880135178566
0.01967785321176052 0.029449939727783203 -0.04097771272063255
0.03037625551223755 0.030376221984624863 0.02300412207841873
0.02848399430513382 0.028483962640166283 0.00429694727063179
0.026315975934267044 0.026315947994589806 -0.019727880135178566
0.025045158341526985 0.025045067071914673 -0.04097771272063255
0.03571869432926178 0.02386648580431938 0.02300412207841873
0.033493634313344955 0.02237974852323532 0.00429694727063179
0.03094431385397911 0.020676342770457268 -0.019727880135178566
0.02944997511804104 0.01967781037092209 -0.04097771272063255
0.03968849405646324 0.016439493745565414 0.02300412207841873
0.03721613436937332 0.015415411442518234 0.00429694727063179
0.034383486956357956 0.014242088422179222 -0.019727880135178566
0.032723069190979004 0.013554277829825878 -0.04097771272063255
0.042133085429668427 0.008380780927836895 0.02300412207841873
0.03950844332575798 0.00785871036350727 0.00429694727063179
0.03650132194161415 0.0072605544701218605 -0.019727880135178566
0.03473862633109093 0.0069098928943276405 -0.04097771272063255
0.04295853525400162 -7.157806791724397e-09 0.02300412207841873
0.040282465517520905 -5.07791231285637e-09 0.00429694727063179
0.0372164323925972 -6.259635032535016e-09 -0.019727880135178566
0.03541921451687813 -4.121172025861597e-08 -0.04097771272063255
0.042133085429668427 -0.008380795828998089 0.02300412207841873
0.03950844332575798 -0.007858719676733017 0.00429694727063179
0.03650132194161415 -0.0072605665773153305 -0.019727880135178566
0.03473862633109093 -0.006909976247698069 -0.04097771272063255
0.03968849405646324 -0.016439519822597504 0.02300412207841873
0.03721613436937332 -0.0154154347255826 0.00429694727063179
0.034383486956357956 -0.014242112636566162 -0.019727880135178566
0.032723069190979004 -0.013554370030760765 -0.04097771272063255
0.03571869432926178 -0.023866483941674232 0.02300412207841873
0.033493634313344955 -0.022379742935299873 0.00429694727063179
0.03094431385397911 -0.020676342770457268 -0.019727880135178566
0.02944997511804104 -0.01967788301408291 -0.04097771272063255
0.03037625551223755 -0.03037627413868904 0.02300412207841873
0.02848399430513382 -0.028484009206295013 0.00429694727063179
0.026315975934267044 -0.026315990835428238 -0.019727880135178566
0.025045158341526985 -0.025045178830623627 -0.04097771272063255
0.02386646717786789 -0.03571872040629387 0.02300412207841873
0.02237972430884838 -0.03349364921450615 0.00429694727063179
0.020676326006650925 -0.030944334343075752 -0.019727880135178566
0.01967785321176052 -0.029450010508298874 -0.04097771272063255
0.016439499333500862 -0.03968852013349533 0.02300412207841873
0.015415416099131107 -0.037216149270534515 0.00429694727063179
0.01424209401011467 -0.03438350558280945 -0.019727880135178566
0.013554342091083527 -0.03272309526801109 -0.04097771272063255
0.008380774408578873 -0.042133115231990814 0.02300412207841873
0.0078587019816041 -0.03950846567749977 0.00429694727063179
0.007260547485202551 -0.036501333117485046 -0.019727880135178566
0.006909945514053106 -0.034738656133413315 -0.04097771272063255
-1.718371933634444e-08 -0.04295850545167923 0.02300412207841873
-1.5247461959688735e-08 -0.04028243571519852 0.00429694727063179
-1.4818053450937896e-08 -0.03721640259027481 -0.019727880135178566
9.418657853643708e-09 -0.03541918843984604 -0.04097771272063255
-0.00838081631809473 -0.042133115231990814 0.02300412207841873
-0.007858739234507084 -0.03950846567749977 0.00429694727063179
-0.007260585203766823 -0.036501333117485046 -0.019727880135178566
-0.006909934803843498 -0.034738656133413315 -0.04097771272063255
-0.016439540311694145 -0.03968852013349533 0.02300412207841873
-0.015415451489388943 -0.037216149270534515 0.00429694727063179
-0.014242127537727356 -0.03438350558280945 -0.019727880135178566
-0.013554325327277184 -0.03272309526801109 -0.04097771272063255
-0.023866506293416023 -0.03571872040629387 0.02300412207841873
-0.022379761561751366 -0.03349364921450615 0.00429694727063179
-0.02067636139690876 -0.030944334343075752 -0.019727880135178566
-0.019677838310599327 -0.029450010508298874 -0.04097771272063255
-0.030376290902495384 -0.03037627413868904 0.02300412207841873
-0.028484022244811058 -0.028484009206295013 0.00429694727063179
-0.02631600759923458 -0.026315990835428238 -0.019727880135178566
-0.025045135989785194 -0.025045178830623627 -0.04097771272063255
-0.035718731582164764 -0.02386643923819065 0.02300412207841873
-0.03349366784095764 -0.022379698231816292 0.00429694727063179
-0.030944345518946648 -0.020676305517554283 -0.019727880135178566
-0.029449963942170143 -0.019677842035889626 -0.04097771272063255
-0.03968849405646324 -0.016439495608210564 0.02300412207841873
-0.03721613436937332 -0.01541541051119566 0.00429694727063179
-0.03438348323106766 -0.014242090284824371 -0.019727880135178566
-0.032723017036914825 -0.013554348610341549 -0.04097771272063255
-0.042133085429668427 -0.008380758576095104 0.02300412207841873
-0.03950843960046768 -0.007858685217797756 0.00429694727063179
-0.036501310765743256 -0.007260534446686506 -0.019727880135178566
-0.03473857045173645 -0.006909944117069244 -0.04097771272063255
-0.04295852407813072 3.107968638005332e-08 0.02300412207841873
-0.040282461792230606 3.077757071423548e-08 0.00429694727063179
-0.0372164286673069 2.6866784352819195e-08 -0.019727880135178566
-0.03541915491223335 -9.685050983421206e-09 -0.04097771272063255
-0.042133085429668427 0.008380819112062454 0.02300412207841873
-0.03950843960046768 0.007858744822442532 0.00429694727063179
-0.036501310765743256 0.007260586600750685 -0.019727880135178566
-0.03473857045173645 0.0069099245592951775 -0.04097771272063255
-0.03968849405646324 0.016439545899629593 0.02300412207841873
-0.03721613436937332 0.015415459871292114 0.00429694727063179
-0.03438348323106766 0.014242134056985378 -0.019727880135178566
-0.032723017036914825 0.013554319739341736 -0.04097771272063255
-0.035718679428100586 0.02386648580431938 0.02300412207841873
-0.03349361568689346 0.02237974852323532 0.00429694727063179
-0.030944306403398514 0.020676342770457268 -0.019727880135178566
-0.02944992482662201 0.01967781037092209 -0.04097771272063255
-0.030376235023140907 0.03037627600133419 0.02300412207841873
-0.028483977541327477 0.028484012931585312 0.00429694727063179
-0.026315962895751 0.026315992698073387 -0.019727880135178566
-0.02504509501159191 0.025045111775398254 -0.04097771272063255
-0.023866403847932816 0.03571872040629387 0.02300412207841873
-0.022379668429493904 0.033493656665086746 0.00429694727063179
-0.020676273852586746 0.0309443362057209 -0.019727880135178566
-0.01967775449156761 0.029449939727783203 -0.04097771272063255
-0.016439465805888176 0.03968852013349533 0.02300412207841873
-0.015415383502840996 0.037216152995824814 0.00429694727063179
-0.014242064207792282 0.03438350558280945 -0.019727880135178566
-0.013554265722632408 0.03272302821278572 -0.04097771272063255
-0.008380728773772717 0.042133115231990814 0.02300412207841873
-0.007858658209443092 0.03950846940279007 0.00429694727063179
-0.007260508835315704 0.036501333117485046 -0.019727880135178566
-0.006909861695021391 0.03473858907818794 -0.04097771272063255
0.006727317813783884 0.033820368349552155 -0.0426594540476799
0.013196105137467384 0.031858086585998535 -0.0426594540476799
0.01915774680674076 0.028671542182564735 -0.0426594540476799
0.0243831817060709 0.024383094161748886 -0.0426594540476799
0.02867157943546772 0.01915770210325718 -0.0426594540476799
0.031858161091804504 0.013196021318435669 -0.0426594540476799
0.03382045030593872 0.006727255415171385 -0.0426594540476799
0.034483037889003754 -4.105604034521093e-08 -0.0426594540476799
0.03382045030593872 -0.006727338302880526 -0.0426594540476799
0.031858161091804504 -0.013196112588047981 -0.0426594540476799
0.02867157943546772 -0.019157774746418 -0.0426594540476799
0.0243831817060709 -0.02438320405781269 -0.0426594540476799
0.01915774680674076 -0.028671611100435257 -0.0426594540476799
0.013196084648370743 -0.031858187168836594 -0.0426594540476799
0.006727307569235563 -0.03382047265768051 -0.0426594540476799
9.7944177213094e-09 -0.03448301926255226 -0.0426594540476799
-0.006727295927703381 -0.03382047265768051 -0.0426594540476799
-0.013196066953241825 -0.031858187168836594 -0.0426594540476799
-0.019157730042934418 -0.028671611100435257 -0.0426594540476799
-0.024383164942264557 -0.02438320405781269 -0.0426594540476799
-0.028671568259596825 -0.019157735630869865 -0.0426594540476799
-0.031858108937740326 -0.01319609209895134 -0.0426594540476799
-0.033820390701293945 -0.006727307103574276 -0.0426594540476799
-0.03448298200964928 -1.0362719571332946e-08 -0.0426594540476799
-0.033820390701293945 0.00672728568315506 -0.0426594540476799
-0.031858108937740326 0.013196061365306377 -0.0426594540476799
-0.02867152728140354 0.01915770210325718 -0.0426594540476799
-0.024383118376135826 0.024383138865232468 -0.0426594540476799
-0.019157646223902702 0.028671542182564735 -0.0426594540476799
-0.013196010142564774 0.03185812011361122 -0.0426594540476799
-0.00672722514718771 0.03382040560245514 -0.0426594540476799
2.1030382768572053e-08 0.03448295220732689 -0.0426594540476799
2.0977724446424872e-08 0.03518066182732582 -0.04140608012676239
0.006863435264676809 0.03450467810034752 -0.04140608012676239
0.013463107869029045 0.032502688467502594 -0.04140608012676239
0.01954537071287632 0.029251674190163612 -0.04140608012676239
0.024876538664102554 0.02487645111978054 -0.04140608012676239
0.02925170585513115 0.019545329734683037 -0.04140608012676239
0.03250276297330856 0.013463023118674755 -0.04140608012676239
0.03450475633144379 0.006863372400403023 -0.04140608012676239
0.03518075495958328 -4.117209329024263e-08 -0.04140608012676239
0.03450475633144379 -0.006863454822450876 -0.04140608012676239
0.03250276297330856 -0.013463115319609642 -0.04140608012676239
0.02925170585513115 -0.019545404240489006 -0.04140608012676239
0.024876538664102554 -0.024876559153199196 -0.04140608012676239
0.01954537071287632 -0.029251735657453537 -0.04140608012676239
0.013463088311254978 -0.03250278905034065 -0.04140608012676239
0.0068634250201284885 -0.03450477868318558 -0.04140608012676239
9.51437684193479e-09 -0.03518072888255119 -0.04140608012676239
-0.006863413844257593 -0.03450477868318558 -0.04140608012676239
-0.01346307247877121 -0.03250278905034065 -0.04140608012676239
-0.019545357674360275 -0.029251735657453537 -0.04140608012676239
-0.02487652190029621 -0.024876559153199196 -0.04140608012676239
-0.029251692816615105 -0.019545359537005424 -0.04140608012676239
-0.032502707093954086 -0.013463093899190426 -0.04140608012676239
-0.03450469672679901 -0.006863424088805914 -0.04140608012676239
-0.035180699080228806 -9.857659577505729e-09 -0.04140608012676239
-0.03450469672679901 0.006863403134047985 -0.04140608012676239
-0.032502707093954086 0.013463065028190613 -0.04140608012676239
-0.02925165183842182 0.019545329734683037 -0.04140608012676239
-0.02487647533416748 0.024876493960618973 -0.04140608012676239
-0.01954527199268341 0.029251674190163612 -0.04140608012676239
-0.01346301194280386 0.03250272572040558 -0.04140608012676239
-0.006863341201096773 0.034504711627960205 -0.04140608012676239
0.006329020019620657 0.03181799501180649 -0.06133388355374336
0.012414814904332161 0.029971890151500702 -0.06133388355374336
0.01802348904311657 0.026974007487297058 -0.06133388355374336
0.022939547896385193 0.022939462214708328 -0.06133388355374336
0.026974039152264595 0.018023446202278137 -0.06133388355374336
0.029971959069371223 0.01241473387926817 -0.06133388355374336
0.03181806951761246 0.00632895901799202 -0.06133388355374336
0.03244143724441528 -4.0741127804722055e-08 -0.06133388355374336
0.03181806951761246 -0.0063290405087172985 -0.06133388355374336
0.029971959069371223 -0.012414822354912758 -0.06133388355374336
0.026974042877554893 -0.018023518845438957 -0.06133388355374336
0.022939547896385193 -0.022939572110772133 -0.06133388355374336
0.01802348904311657 -0.02697407640516758 -0.06133388355374336
0.012414797209203243 -0.029971985146403313 -0.06133388355374336
0.006329011172056198 -0.031818095594644547 -0.06133388355374336
1.062595433864999e-08 -0.032441411167383194 -0.06133388355374336
-0.006328997667878866 -0.031818095594644547 -0.06133388355374336
-0.012414776720106602 -0.029971985146403313 -0.06133388355374336
-0.018023468554019928 -0.02697407454252243 -0.06133388355374336
-0.0229395292699337 -0.022939572110772133 -0.06133388355374336
-0.026974031701683998 -0.018023479729890823 -0.06133388355374336
-0.029971905052661896 -0.01241480465978384 -0.06133388355374336
-0.03181801363825798 -0.006329011637717485 -0.06133388355374336
-0.03244137763977051 -1.1865023630264204e-08 -0.06133388355374336
-0.03181801363825798 0.006328987423330545 -0.06133388355374336
-0.029971905052661896 0.01241477020084858 -0.06133388355374336
-0.026973990723490715 0.018023446202278137 -0.06133388355374336
-0.022939490154385567 0.02293950319290161 -0.06133388355374336
-0.018023395910859108 0.026974007487297058 -0.06133388355374336
-0.012414722703397274 0.02997191995382309 -0.06133388355374336
-0.006328929215669632 0.031818028539419174 -0.06133388355374336
2.119667286137883e-08 0.03244134783744812 -0.06133388355374336
0.006154931150376797 0.03094279021024704 -0.06201211363077164
0.012073326855897903 0.029147466644644737 -0.06201211363077164
0.017527727410197258 0.026232047006487846 -0.06201211363077164
0.022308561950922012 0.022308476269245148 -0.06201211363077164
0.026232080534100533 0.017527680844068527 -0.06201211363077164
0.02914753369987011 0.012073245830833912 -0.06201211363077164
0.03094286285340786 0.006154870148748159 -0.06201211363077164
0.031549084931612015 -4.0578520099643356e-08 -0.06201211363077164
0.03094286285340786 -0.006154951173812151 -0.06201211363077164
0.02914753369987011 -0.0120733343064785 -0.06201211363077164
0.02623208425939083 -0.017527755349874496 -0.06201211363077164
0.022308561950922012 -0.022308582440018654 -0.06201211363077164
0.017527727410197258 -0.02623211406171322 -0.06201211363077164
0.01207331009209156 -0.029147565364837646 -0.06201211363077164
0.0061549236997962 -0.0309428907930851 -0.06201211363077164
1.0986807907897855e-08 -0.03154906630516052 -0.06201211363077164
-0.006154907401651144 -0.0309428907930851 -0.06201211363077164
-0.012073290534317493 -0.029147565364837646 -0.06201211363077164
-0.017527706921100616 -0.02623211219906807 -0.06201211363077164
-0.02230854332447052 -0.022308582440018654 -0.06201211363077164
-0.026232069358229637 -0.01752771995961666 -0.06201211363077164
-0.02914748340845108 -0.012073316611349583 -0.06201211363077164
-0.030942808836698532 -0.0061549232341349125 -0.06201211363077164
-0.03154902532696724 -1.2496689905105995e-08 -0.06201211363077164
-0.030942808836698532 0.006154898088425398 -0.06201211363077164
-0.02914748340845108 0.012073282152414322 -0.06201211363077164
-0.026232032105326653 0.017527680844068527 -0.06201211363077164
-0.022308500483632088 0.02230851538479328 -0.06201211363077164
-0.017527634277939796 0.026232047006487846 -0.06201211363077164
-0.01207323744893074 0.029147498309612274 -0.06201211363077164
-0.006154841743409634 0.030942821875214577 -0.06201211363077164
2.126675191505001e-08 0.03154899924993515 -0.06201211363077164
2.1237768876858354e-08 0.03191795200109482 -0.06173168495297432
0.0062269107438623905 0.031304653733968735 -0.06173168495297432
0.01221451722085476 0.0294883344322443 -0.06173168495297432
0.017732705920934677 0.026538819074630737 -0.06173168495297432
0.022569451481103897 0.02256936766207218 -0.06173168495297432
0.026538856327533722 0.017732661217451096 -0.06173168495297432
0.029488401487469673 0.012214438058435917 -0.06173168495297432
0.031304728239774704 0.006226849276572466 -0.06173168495297432
0.03191803768277168 -4.06457481005873e-08 -0.06173168495297432
0.031304728239774704 -0.006226930767297745 -0.06173168495297432
0.029488401487469673 -0.012214526534080505 -0.06173168495297432
0.026538856327533722 -0.017732735723257065 -0.06173168495297432
0.022569451481103897 -0.022569473832845688 -0.06173168495297432
0.017732705920934677 -0.02653888612985611 -0.06173168495297432
0.012214500457048416 -0.02948842942714691 -0.06173168495297432
0.006226901896297932 -0.03130475431680679 -0.06173168495297432
1.0837602815172431e-08 -0.03191801905632019 -0.06173168495297432
-0.0062268865294754505 -0.03130475431680679 -0.06173168495297432
-0.01221448089927435 -0.02948842942714691 -0.06173168495297432
-0.017732687294483185 -0.02653888240456581 -0.06173168495297432
-0.022569429129362106 -0.022569473832845688 -0.06173168495297432
-0.026538841426372528 -0.01773269847035408 -0.06173168495297432
-0.029488349333405495 -0.012214508838951588 -0.06173168495297432
-0.03130467236042023 -0.006226902827620506 -0.06173168495297432
-0.03191797807812691 -1.2235508606295298e-08 -0.06173168495297432
-0.03130467236042023 0.006226877681910992 -0.06173168495297432
-0.029488349333405495 0.012214474380016327 -0.06173168495297432
-0.026538806036114693 0.017732661217451096 -0.06173168495297432
-0.022569390013813972 0.022569403052330017 -0.06173168495297432
-0.017732612788677216 0.026538819074630737 -0.06173168495297432
-0.012214427813887596 0.02948836423456669 -0.06173168495297432
-0.006226821336895227 0.03130468726158142 -0.06173168495297432
-3.2401505922763363e-09 0.0435965396463871 0.027809089049696922
-3.2942306660288523e-09 0.044234588742256165 0.032614052295684814
-3.3483102956921584e-09 0.04487263783812523 0.040194008499383926
-3.402394588292168e-09 0.04551068693399429 0.04499897360801697
0.008878692984580994 0.04463620483875275 0.04499897360801697
0.008754216134548187 0.04401041567325592 0.040194012224674225
0.008629740215837955 0.04338463395833969 0.03261405602097511
0.008505263365805149 0.04275884851813316 0.027809089049696922
0.017416203394532204 0.04204638674855232 0.04499897360801697
0.017172034829854965 0.04145690053701401 0.040194012224674225
0.016927864402532578 0.04086742922663689 0.03261405602097511
0.01668369211256504 0.04027795419096947 0.027809089049696922
0.025284383445978165 0.03784078359603882 0.04499897360801697
0.02492990344762802 0.037310268729925156 0.040194012224674225
0.024575425311923027 0.03677975386381149 0.03261405602097511
0.024220947176218033 0.03624923899769783 0.027809089049696922
0.03218092396855354 0.03218088671565056 0.04499897360801697
0.03172975778579712 0.031729720532894135 0.040194012224674225
0.031278591603040695 0.03127855435013771 0.03261405602097511
0.030827423557639122 0.030827390030026436 0.027809089049696922
0.03784076124429703 0.025284402072429657 0.04499897360801697
0.037310246378183365 0.024929923936724663 0.040194012224674225
0.036779727786779404 0.02457544580101967 0.03261405602097511
0.03624920919537544 0.024220965802669525 0.027809089049696922
0.042046405375003815 0.017416171729564667 0.04499897360801697
0.0414569266140461 0.01717200130224228 0.040194012224674225
0.04086745157837868 0.01692783273756504 0.03261405602097511
0.04027797654271126 0.016683664172887802 0.027809089049696922
0.044636234641075134 0.008878687396645546 0.04499897360801697
0.04401044920086861 0.008754211477935314 0.040194012224674225
0.04338466376066208 0.008629735559225082 0.03261405602097511
0.04275887459516525 0.008505258709192276 0.027809089049696922
0.04551071673631668 -7.56001661272876e-09 0.04499897360801697
0.04487267881631851 -7.459472151083446e-09 0.040194012224674225
0.04423462972044945 -7.358895270925814e-09 0.03261405602097511
0.04359658062458038 -7.2583508092805005e-09 0.027809089049696922
0.044636234641075134 -0.008878701366484165 0.04499897360801697
0.04401044920086861 -0.008754225447773933 0.040194012224674225
0.04338466376066208 -0.008629749529063702 0.03261405602097511
0.04275887459516525 -0.008505272679030895 0.027809089049696922
0.042046405375003815 -0.017416201531887054 0.04499897360801697
0.0414569266140461 -0.017172031104564667 0.040194012224674225
0.04086745157837868 -0.01692786253988743 0.03261405602097511
0.04027797654271126 -0.01668369211256504 0.027809089049696922
0.03784076124429703 -0.025284400209784508 0.04499897360801697
0.037310246378183365 -0.024929920211434364 0.040194012224674225
0.036779727786779404 -0.02457544393837452 0.03261405602097511
0.03624920919537544 -0.024220965802669525 0.027809089049696922
0.03218092396855354 -0.03218093886971474 0.04499897360801697
0.03172975778579712 -0.03172977268695831 0.040194012224674225
0.031278591603040695 -0.03127860650420189 0.03261405602097511
0.030827423557639122 -0.030827440321445465 0.027809089049696922
0.025284383445978165 -0.03784078359603882 0.04499897360801697
0.02492990344762802 -0.037310268729925156 0.040194012224674225
0.024575425311923027 -0.03677975386381149 0.03261405602097511
0.024220947176218033 -0.03624923527240753 0.027809089049696922
0.017416177317500114 -0.042046431452035904 0.04499897360801697
0.017172008752822876 -0.04145694896578789 0.040194012224674225
0.01692783832550049 -0.04086747393012047 0.03261405602097511
0.01668366976082325 -0.04027800261974335 0.027809089049696922
0.008878679946064949 -0.044636260718107224 0.04499897360801697
0.008754204027354717 -0.0440104715526104 0.040194012224674225
0.00862972717732191 -0.04338468611240387 0.03261405602097511
0.008505250327289104 -0.04275889694690704 0.027809089049696922
-1.8231649079325507e-08 -0.04551069065928459 0.04499897360801697
-1.796966664358024e-08 -0.044872645288705826 0.040194012224674225
-1.7707684207834973e-08 -0.04423459619283676 0.03261405602097511
-1.7445703548446545e-08 -0.043596550822257996 0.027809089049696922
-0.00887872464954853 -0.044636260718107224 0.04499897360801697
-0.00875424686819315 -0.0440104715526104 0.040194012224674225
-0.008629770018160343 -0.04338468611240387 0.03261405602097511
-0.008505292236804962 -0.04275889694690704 0.027809089049696922
-0.017416222020983696 -0.042046431452035904 0.04499897360801697
-0.01717204973101616 -0.04145694896578789 0.040194012224674225
-0.01692788116633892 -0.04086747393012047 0.03261405602097511
-0.016683708876371384 -0.04027800261974335 0.027809089049696922
-0.025284426286816597 -0.03784078359603882 0.04499897360801697
-0.024929946288466454 -0.037310268729925156 0.040194012224674225
-0.02457546629011631 -0.03677975386381149 0.03261405602097511
-0.024220986291766167 -0.03624923527240753 0.027809089049696922
-0.03218095749616623 -0.03218093886971474 0.04499897360801697
-0.031729791313409805 -0.03172977268695831 0.040194012224674225
-0.03127862513065338 -0.03127860650420189 0.03261405602097511
-0.030827457085251808 -0.030827440321445465 0.027809089049696922
-0.03784080967307091 -0.025284353643655777 0.04499897360801697
-0.03731028363108635 -0.024929873645305634 0.040194012224674225
-0.03677976876497269 -0.02457539737224579 0.03261405602097511
-0.036249253898859024 -0.024220917373895645 0.027809089049696922
-0.042046405375003815 -0.017416173592209816 0.04499897360801697
-0.041456930339336395 -0.01717200316488743 0.040194012224674225
-0.04086744785308838 -0.01692783460021019 0.03261405602097511
-0.04027796536684036 -0.01668366603553295 0.027809089049696922
-0.044636230915784836 -0.008878661319613457 0.04499897360801697
-0.04401044547557831 -0.008754185400903225 0.040194012224674225
-0.043384652584791183 -0.008629710413515568 0.03261405602097511
-0.042758870869874954 -0.008505234494805336 0.027809089049696922
-0.04551071301102638 3.294915629226125e-08 0.04499897360801697
-0.044872671365737915 3.248177193881929e-08 0.040194012224674225
-0.04423462226986885 3.201442311251412e-08 0.03261405602097511
-0.043596576899290085 3.1547038759072166e-08 0.027809089049696922
-0.044636230915784836 0.00887872651219368 0.04499897360801697
-0.04401044547557831 0.008754249662160873 0.040194012224674225
-0.043384652584791183 0.008629773743450642 0.03261405602097511
-0.042758870869874954 0.008505296893417835 0.027809089049696922
-0.042046405375003815 0.017416225746273994 0.04499897360801697
-0.041456930339336395 0.017172055318951607 0.040194012224674225
-0.04086744785308838 0.01692788489162922 0.03261405602097511
-0.04027796536684036 0.01668371632695198 0.027809089049696922
-0.03784075006842613 0.025284402072429657 0.04499897360801697
-0.03731023147702217 0.024929923936724663 0.040194012224674225
-0.03677972033619881 0.02457544580101967 0.03261405602097511
-0.036249201744794846 0.024220965802669525 0.027809089049696922
-0.03218090534210205 0.032180946320295334 0.04499897360801697
-0.03172973915934563 0.03172977641224861 0.040194012224674225
-0.031278569251298904 0.03127861022949219 0.03261405602097511
-0.03082740306854248 0.030827445909380913 0.027809089049696922
-0.02528432011604309 0.03784078359603882 0.04499897360801697
-0.024929840117692947 0.037310268729925156 0.040194012224674225
-0.024575360119342804 0.03677975386381149 0.03261405602097511
-0.02422088384628296 0.03624923899769783 0.027809089049696922
-0.01741614192724228 0.042046431452035904 0.04499897360801697
-0.01717197336256504 0.041456952691078186 0.040194012224674225
-0.016927804797887802 0.04086747393012047 0.03261405602097511
-0.016683632507920265 0.04027799516916275 0.027809089049696922
-0.008878630585968494 0.044636260718107224 0.04499897360801697
-0.008754154667258263 0.0440104715526104 0.040194012224674225
-0.00862967874854803 0.04338468611240387 0.03261405602097511
-0.008505202829837799 0.04275889694690704 0.027809089049696922
-3.2711280351094274e-09 0.044097673147916794 0.02875703200697899
0.008603029884397984 0.04325035214424133 0.028757037594914436
0.01687546819448471 0.04074093699455261 0.028757037594914436
0.024499360471963882 0.036665912717580795 0.028757037594914436
0.031181776896119118 0.03118174336850643 0.028757037594914436
0.036665886640548706 0.024499380961060524 0.028757037594914436
0.0407409593462944 0.016875438392162323 0.028757037594914436
0.04325037822127342 0.00860302522778511 0.028757037594914436
0.04409771412611008 -7.333470719572688e-09 0.028757037594914436
0.04325037822127342 -0.00860303919762373 0.028757037594914436
0.0407409593462944 -0.01687546633183956 0.028757037594914436
0.036665886640548706 -0.024499379098415375 0.028757037594914436
0.031181776896119118 -0.03118179179728031 0.028757037594914436
0.024499360471963882 -0.036665912717580795 0.028757037594914436
0.01687544584274292 -0.04074098914861679 0.028757037594914436
0.008603016845881939 -0.04325040429830551 0.028757037594914436
-1.7639965932403356e-08 -0.04409768059849739 0.028757037594914436
-0.008603059686720371 -0.04325040429830551 0.028757037594914436
-0.016875484958291054 -0.04074098914861679 0.028757037594914436
-0.024499401450157166 -0.036665912717580795 0.028757037594914436
-0.031181812286376953 -0.03118179179728031 0.028757037594914436
-0.03666593134403229 -0.024499332532286644 0.028757037594914436
-0.040740951895713806 -0.016875440254807472 0.028757037594914436
-0.043250374495983124 -0.008603000082075596 0.028757037594914436
-0.04409770667552948 3.191796338342101e-08 0.028757037594914436
-0.043250374495983124 0.00860306341201067 0.028757037594914436
-0.040740951895713806 0.0168754905462265 0.028757037594914436
-0.03666587918996811 0.024499380961060524 0.028757037594914436
-0.031181756407022476 0.03118179924786091 0.028757037594914436
-0.024499299004673958 0.036665912717580795 0.028757037594914436
-0.016875408589839935 0.04074098542332649 0.028757037594914436
-0.008602968417108059 0.04325040429830551 0.028757037594914436
0.00859331339597702 0.0432015024125576 0.027944236993789673
0.01685640960931778 0.04069492220878601 0.027944236993789673
0.024471692740917206 0.036624498665332794 0.027944236993789673
0.031146559864282608 0.031146526336669922 0.027944236993789673
0.0366244800388813 0.02447170950472355 0.027944236993789673
0.0406949482858181 0.016856377944350243 0.027944236993789673
0.04320152848958969 0.008593307808041573 0.027944236993789673
0.04404791072010994 -7.325599682417305e-09 0.027944236993789673
0.04320152848958969 -0.008593321777880192 0.027944236993789673
0.0406949482858181 -0.01685640774667263 0.027944236993789673
0.0366244800388813 -0.0244717076420784 0.027944236993789673
0.031146559864282608 -0.03114657662808895 0.027944236993789673
0.024471692740917206 -0.036624498665332794 0.027944236993789673
0.01685638353228569 -0.04069497063755989 0.027944236993789673
0.008593300357460976 -0.04320155456662178 0.027944236993789673
-1.761951651246818e-08 -0.04404787719249725 0.027944236993789673
-0.008593343198299408 -0.04320155456662178 0.027944236993789673
-0.016856426373124123 -0.04069497063755989 0.027944236993789673
-0.02447172999382019 -0.036624498665332794 0.027944236993789673
-0.031146598979830742 -0.03114657662808895 0.027944236993789673
-0.036624521017074585 -0.024471662938594818 0.027944236993789673
-0.0406949408352375 -0.016856379806995392 0.027944236993789673
-0.04320152848958969 -0.008593283593654633 0.027944236993789673
-0.04404790326952934 3.188150543564916e-08 0.027944236993789673
-0.04320152848958969 0.008593345992267132 0.027944236993789673
-0.0406949408352375 0.01685643196105957 0.027944236993789673
-0.036624468863010406 0.02447170950472355 0.027944236993789673
-0.031146539375185966 0.03114658035337925 0.027944236993789673
-0.024471627548336983 0.036624498665332794 0.027944236993789673
-0.016856350004673004 0.04069496691226959 0.027944236993789673
-0.00859325286000967 0.04320155456662178 0.027944236993789673
-3.2669043026345435e-09 0.044047873467206955 0.027944233268499374
-3.3749818495465433e-09 0.0450485497713089 0.03345807269215584
0.008788535371422768 0.04418294504284859 0.03345808386802673
0.01723935268819332 0.041619427502155304 0.03345808386802673
0.02502763830125332 0.037456534802913666 0.03345808386802673
0.03185414522886276 0.031854111701250076 0.03345808386802673
0.03745651617646217 0.02502765879034996 0.03345808386802673
0.041619449853897095 0.017239322885870934 0.03345808386802673
0.04418297857046127 0.008788530714809895 0.03345808386802673
0.04504859074950218 -7.474786123395916e-09 0.03345808386802673
0.04418297857046127 -0.008788544684648514 0.03345808386802673
0.041619449853897095 -0.017239350825548172 0.03345808386802673
0.03745651617646217 -0.02502765692770481 0.03345808386802673
0.03185414522886276 -0.031854163855314255 0.03345808386802673
0.02502763830125332 -0.037456534802913666 0.03345808386802673
0.017239326611161232 -0.041619475930929184 0.03345808386802673
0.008788522332906723 -0.04418300464749336 0.03345808386802673
-1.805365990037444e-08 -0.045048560947179794 0.03345808386802673
-0.008788567036390305 -0.04418300464749336 0.03345808386802673
-0.017239369451999664 -0.041619475930929184 0.03345808386802673
-0.025027677416801453 -0.037456534802913666 0.03345808386802673
-0.03185417875647545 -0.031854163855314255 0.03345808386802673
-0.03745654970407486 -0.02502760849893093 0.03345808386802673
-0.041619449853897095 -0.017239324748516083 0.03345808386802673
-0.044182974845170975 -0.008788504637777805 0.03345808386802673
-0.04504857957363129 3.262308823082094e-08 0.03345808386802673
-0.044182974845170975 0.008788569830358028 0.03345808386802673
-0.041619449853897095 0.017239375039935112 0.03345808386802673
-0.03745649755001068 0.02502765879034996 0.03345808386802673
-0.03185412660241127 0.03185416758060455 0.03345808386802673
-0.025027571246027946 0.037456534802913666 0.03345808386802673
-0.017239293083548546 0.04161947965621948 0.03345808386802673
-0.008788472972810268 0.04418300464749336 0.03345808386802673
0.008768243715167046 0.044080931693315506 0.032765790820121765
0.017199547961354256 0.04152332991361618 0.032765790820121765
0.024969851598143578 0.03737005218863487 0.032765790820121765
0.03178059682250023 0.03178056329488754 0.032765790820121765
0.03737002983689308 0.02496987022459507 0.032765790820121765
0.04152335226535797 0.017199518159031868 0.032765790820121765
0.044080961495637894 0.008768238127231598 0.032765790820121765
0.04494457319378853 -7.465432716458054e-09 0.032765790820121765
0.044080961495637894 -0.008768252097070217 0.032765790820121765
0.04152335226535797 -0.017199546098709106 0.032765790820121765
0.03737002983689308 -0.02496986836194992 0.032765790820121765
0.03178059682250023 -0.03178061544895172 0.032765790820121765
0.024969851598143578 -0.03737005218863487 0.032765790820121765
0.017199521884322166 -0.04152337834239006 0.032765790820121765
0.008768230676651001 -0.04408099129796028 0.032765790820121765
-1.8004516988412433e-08 -0.04494454339146614 0.032765790820121765
-0.008768274448812008 -0.04408099129796028 0.032765790820121765
-0.0171995647251606 -0.04152337834239006 0.032765790820121765
-0.02496989071369171 -0.03737005218863487 0.032765790820121765
-0.031780634075403214 -0.03178061544895172 0.032765790820121765
-0.037370070815086365 -0.02496982365846634 0.032765790820121765
-0.04152335226535797 -0.017199520021677017 0.032765790820121765
-0.044080957770347595 -0.008768212050199509 0.032765790820121765
-0.04494456946849823 3.253983038575825e-08 0.032765790820121765
-0.0440809540450573 0.008768276311457157 0.032765790820121765
-0.04152335226535797 0.017199570313096046 0.032765790820121765
-0.037370018661022186 0.02496987022459507 0.032765790820121765
-0.03178057819604874 0.03178061917424202 0.032765790820121765
-0.024969782680273056 0.03737005218863487 0.032765790820121765
-0.01719948649406433 0.04152337834239006 0.032765790820121765
-0.008768182247877121 0.04408099502325058 0.032765790820121765
-3.3597340465263414e-09 0.044944532215595245 0.032765790820121765
-3.4212279675926993e-09 0.04557303711771965 0.04096526652574539
0.008890858851373196 0.044697362929582596 0.04096526652574539
0.01744006760418415 0.04210399091243744 0.04096526652574539
0.025319024920463562 0.03789263218641281 0.04096526652574539
0.03222501650452614 0.032224979251623154 0.04096526652574539
0.03789260983467102 0.025319049134850502 0.04096526652574539
0.04210400953888893 0.017440034076571465 0.04096526652574539
0.044697392731904984 0.008890854194760323 0.04096526652574539
0.04557307809591293 -7.566570481287727e-09 0.04096526652574539
0.044697392731904984 -0.008890867233276367 0.04096526652574539
0.04210400953888893 -0.017440065741539 0.04096526652574539
0.03789260983467102 -0.025319045409560204 0.04096526652574539
0.03222501650452614 -0.03222503140568733 0.04096526652574539
0.025319024920463562 -0.03789263218641281 0.04096526652574539
0.017440039664506912 -0.04210404306650162 0.04096526652574539
0.008890844881534576 -0.04469742253422737 0.04096526652574539
-1.8270801760422728e-08 -0.04557304456830025 0.04096526652574539
-0.008890889585018158 -0.04469742253422737 0.04096526652574539
-0.017440084367990494 -0.04210404306650162 0.04096526652574539
-0.025319069623947144 -0.03789263218641281 0.04096526652574539
-0.03222505375742912 -0.03222503140568733 0.04096526652574539
-0.037892647087574005 -0.025318996980786324 0.04096526652574539
-0.04210401326417923 -0.017440035939216614 0.04096526652574539
-0.044697389006614685 -0.008890828117728233 0.04096526652574539
-0.045573074370622635 3.299809492318673e-08 0.04096526652574539
-0.044697389006614685 0.008890893310308456 0.04096526652574539
-0.04210401326417923 0.01744008995592594 0.04096526652574539
-0.03789259493350983 0.025319049134850502 0.04096526652574539
-0.032224997878074646 0.03222503513097763 0.04096526652574539
-0.025318961590528488 0.03789263218641281 0.04096526652574539
-0.017440006136894226 0.042104046791791916 0.04096526652574539
-0.008890796452760696 0.04469742253422737 0.04096526652574539
0.008875775150954723 0.044621530920267105 0.040390677750110626
0.017410479485988617 0.04203256592154503 0.040390677750110626
0.025276074185967445 0.03782835602760315 0.040390677750110626
0.03217035159468651 0.032170310616493225 0.040390677750110626
0.03782832622528076 0.025276094675064087 0.040390677750110626
0.04203258827328682 0.01741044782102108 0.040390677750110626
0.04462156444787979 0.00887577049434185 0.040390677750110626
0.04549576714634895 -7.554384673369441e-09 0.040390677750110626
0.04462156444787979 -0.00887578446418047 0.040390677750110626
0.04203258827328682 -0.01741047576069832 0.040390677750110626
0.03782832622528076 -0.02527609094977379 0.040390677750110626
0.03217035159468651 -0.032170362770557404 0.040390677750110626
0.025276074185967445 -0.03782835602760315 0.040390677750110626
0.017410453408956528 -0.04203261435031891 0.040390677750110626
0.008875762112438679 -0.04462158679962158 0.040390677750110626
-1.8239058263702645e-08 -0.04549572989344597 0.040390677750110626
-0.00887580681592226 -0.04462158679962158 0.040390677750110626
-0.01741049811244011 -0.04203261435031891 0.040390677750110626
-0.025276117026805878 -0.03782835602760315 0.040390677750110626
-0.032170385122299194 -0.032170362770557404 0.040390677750110626
-0.03782837092876434 -0.025276044383645058 0.040390677750110626
-0.04203259199857712 -0.01741044968366623 0.040390677750110626
-0.04462156072258949 -0.008875744417309761 0.040390677750110626
-0.045495759695768356 3.294148243071504e-08 0.040390677750110626
-0.04462156072258949 0.008875809609889984 0.040390677750110626
-0.04203259199857712 0.017410503700375557 0.040390677750110626
-0.037828318774700165 0.025276094675064087 0.040390677750110626
-0.03217032924294472 0.0321703664958477 0.040390677750110626
-0.025276008993387222 0.03782835602760315 0.040390677750110626
-0.01741041988134384 0.04203261807560921 0.040390677750110626
-0.008875713683664799 0.04462159425020218 0.040390677750110626
-3.414674321078337e-09 0.04549572244286537 0.04039067402482033
-3.4846816543421255e-09 0.046335697174072266 0.046057313680648804
0.009039645083248615 0.04544536769390106 0.046057313680648804
0.0177319198846817 0.042808592319488525 0.046057313680648804
0.02574273571372032 0.038526758551597595 0.046057313680648804
0.03276429325342178 0.0327642560005188 0.046057313680648804
0.038526732474565506 0.025742756202816963 0.046057313680648804
0.042808614671230316 0.017731890082359314 0.046057313680648804
0.04544539749622345 0.009039639495313168 0.046057313680648804
0.04633573070168495 -7.68331709366521e-09 0.046057313680648804
0.04544539749622345 -0.009039652533829212 0.046057313680648804
0.042808614671230316 -0.0177319198846817 0.046057313680648804
0.038526732474565506 -0.025742752477526665 0.046057313680648804
0.03276429325342178 -0.032764311879873276 0.046057313680648804
0.02574273571372032 -0.038526758551597595 0.046057313680648804
0.017731893807649612 -0.042808640748262405 0.046057313680648804
0.00903963204473257 -0.04544542357325554 0.046057313680648804
-1.8582760219487682e-08 -0.046335700899362564 0.046057313680648804
-0.009039675816893578 -0.04544542357325554 0.046057313680648804
-0.017731942236423492 -0.042808640748262405 0.046057313680648804
-0.025742776691913605 -0.038526758551597595 0.046057313680648804
-0.03276432678103447 -0.032764311879873276 0.046057313680648804
-0.03852677717804909 -0.025742705911397934 0.046057313680648804
-0.04280861094594002 -0.017731891945004463 0.046057313680648804
-0.045445386320352554 -0.009039612486958504 0.046057313680648804
-0.04633572697639465 3.3560194623305506e-08 0.046057313680648804
-0.045445386320352554 0.009039678610861301 0.046057313680648804
-0.04280861094594002 0.01773194596171379 0.046057313680648804
-0.03852672502398491 0.025742756202816963 0.046057313680648804
-0.03276427090167999 0.032764315605163574 0.046057313680648804
-0.02574266865849495 0.038526758551597595 0.046057313680648804
-0.017731858417391777 0.042808640748262405 0.046057313680648804
-0.009039580821990967 0.04544542357325554 0.046057313680648804
0.009017973206937313 0.045336414128541946 0.04523314908146858
0.017689410597085953 0.0427059680223465 0.04523314908146858
0.025681022554636 0.03843439742922783 0.04523314908146858
0.03268574923276901 0.03268571197986603 0.04523314908146858
0.03843437135219574 0.025681039318442345 0.04523314908146858
0.04270598664879799 0.017689380794763565 0.04523314908146858
0.04533644765615463 0.009017969481647015 0.04523314908146858
0.04622465372085571 -7.665829748759734e-09 0.04523314908146858
0.04533644765615463 -0.009017981588840485 0.04523314908146858
0.04270598664879799 -0.017689410597085953 0.04523314908146858
0.03843437135219574 -0.025681037455797195 0.04523314908146858
0.03268574923276901 -0.032685764133930206 0.04523314908146858
0.025681022554636 -0.03843439742922783 0.04523314908146858
0.017689386382699013 -0.042706020176410675 0.04523314908146858
0.009017960168421268 -0.04533647000789642 0.04523314908146858
-1.853715225763608e-08 -0.04622462019324303 0.04523314908146858
-0.00901800487190485 -0.04533647000789642 0.04523314908146858
-0.017689431086182594 -0.042706020176410675 0.04523314908146858
-0.025681065395474434 -0.03843439742922783 0.04523314908146858
-0.0326857827603817 -0.032685764133930206 0.04523314908146858
-0.03843441978096962 -0.025680990889668465 0.04523314908146858
-0.04270598664879799 -0.017689382657408714 0.04523314908146858
-0.04533643648028374 -0.009017941541969776 0.04523314908146858
-0.046224646270275116 3.347884813820201e-08 0.04523314908146858
-0.04533643648028374 0.00901800673455 0.04523314908146858
-0.04270598664879799 0.017689436674118042 0.04523314908146858
-0.03843436390161514 0.025681039318442345 0.04523314908146858
-0.03268572688102722 0.032685767859220505 0.04523314908146858
-0.02568095736205578 0.03843439742922783 0.04523314908146858
-0.017689350992441177 0.042706020176410675 0.04523314908146858
-0.00901790987700224 0.04533647745847702 0.04523314908146858
-3.4752667410486993e-09 0.04622461646795273 0.04523314908146858
-3.7000422725697035e-09 0.04898107796907425 0.051754631102085114
0.009555733762681484 0.04803991690278053 0.051754631102085114
0.01874426379799843 0.04525260999798775 0.051754631102085114
0.02721243165433407 0.04072631523013115 0.051754631102085114
0.03463486209511757 0.034634821116924286 0.051754631102085114
0.04072628915309906 0.02721245400607586 0.051754631102085114
0.04525262862443924 0.01874423213303089 0.051754631102085114
0.04803994297981262 0.009555728174746037 0.051754631102085114
0.048981115221977234 -8.070212942357102e-09 0.051754631102085114
0.04803994297981262 -0.009555741213262081 0.051754631102085114
0.04525262862443924 -0.01874426193535328 0.051754631102085114
0.04072628915309906 -0.02721245214343071 0.051754631102085114
0.03463486209511757 -0.03463487699627876 0.051754631102085114
0.02721243165433407 -0.04072631150484085 0.051754631102085114
0.01874423772096634 -0.04525265842676163 0.051754631102085114
0.00955572072416544 -0.04803996905684471 0.051754631102085114
-1.9660095773588182e-08 -0.04898108169436455 0.051754631102085114
-0.009555766358971596 -0.04803996905684471 0.051754631102085114
-0.01874428614974022 -0.04525265842676163 0.051754631102085114
-0.0272124782204628 -0.04072631150484085 0.051754631102085114
-0.03463490307331085 -0.03463487699627876 0.051754631102085114
-0.04072634130716324 -0.027212398126721382 0.051754631102085114
-0.04525262117385864 -0.01874423399567604 0.051754631102085114
-0.048039939254522324 -0.009555698372423649 0.051754631102085114
-0.048981111496686935 3.552800009742896e-08 0.051754631102085114
-0.048039939254522324 0.009555771015584469 0.051754631102085114
-0.04525262117385864 0.018744293600320816 0.051754631102085114
-0.040726277977228165 0.02721245400607586 0.051754631102085114
-0.03463483974337578 0.03463488817214966 0.051754631102085114
-0.027212362736463547 0.04072631523013115 0.051754631102085114
-0.018744200468063354 0.04525265842676163 0.051754631102085114
-0.009555663913488388 0.04803998023271561 0.051754631102085114
0.009551124647259712 0.0480167493224144 0.049480997025966644
0.01873522624373436 0.04523077979683876 0.049480997025966644
0.027199307456612587 0.04070667177438736 0.049480997025966644
0.034618157893419266 0.03461812064051628 0.049480997025966644
0.04070664942264557 0.027199331670999527 0.049480997025966644
0.04523080587387085 0.018735194578766823 0.049480997025966644
0.048016782850027084 0.00955111999064684 0.049480997025966644
0.04895749315619469 -8.064811929386906e-09 0.049480997025966644
0.048016782850027084 -0.009551133960485458 0.049480997025966644
0.04523080587387085 -0.01873522438108921 0.049480997025966644
0.04070664942264557 -0.027199329808354378 0.049480997025966644
0.034618157893419266 -0.034618180245161057 0.049480997025966644
0.027199307456612587 -0.04070667549967766 0.049480997025966644
0.01873519830405712 -0.04523083195090294 0.049480997025966644
0.009551112540066242 -0.048016805201768875 0.049480997025966644
-1.9653295879606958e-08 -0.0489574633538723 0.049480997025966644
-0.009551157243549824 -0.048016805201768875 0.049480997025966644
-0.0187352504581213 -0.04523083195090294 0.049480997025966644
-0.027199354022741318 -0.04070667549967766 0.049480997025966644
-0.03461819887161255 -0.034618180245161057 0.049480997025966644
-0.04070669412612915 -0.02719927579164505 0.049480997025966644
-0.04523080214858055 -0.018735196441411972 0.049480997025966644
-0.04801677167415619 -0.009551091119647026 0.049480997025966644
-0.04895748570561409 3.551232552467809e-08 0.049480997025966644
-0.04801677167415619 0.009551162831485271 0.049480997025966644
-0.04523080214858055 0.018735254183411598 0.049480997025966644
-0.040706634521484375 0.027199331670999527 0.049480997025966644
-0.03461813926696777 0.034618183970451355 0.049480997025966644
-0.027199236676096916 0.04070667177438736 0.049480997025966644
-0.018735161051154137 0.04523083567619324 0.049480997025966644
