-0.006901722401380539 -0.0015312155010178685 0.0038591688498854637
-0.006417090073227882 -0.0029867077246308327 0.00427983608096838
-0.020082388073205948 0.010524059645831585 -0.004882064647972584
-0.01966380700469017 0.005567578133195639 -0.004756042268127203
-0.019271528348326683 0.0002907043672166765 -0.004777321591973305
-0.019746294245123863 -0.00496051087975502 -0.004741236567497253
-0.020242342725396156 -0.009891485795378685 -0.004853355698287487
-0.037712354212999344 -0.012932047247886658 -0.0039865970611572266
-0.03730243816971779 0.01415079366415739 -0.004060178063809872
-0.07748518884181976 0.012103009968996048 0.015603790059685707
-0.0778132826089859 -0.00957399606704712 0.01566268317401409
-0.028200333938002586 -0.013585987500846386 -0.0061095114797353745
-0.027790412306785583 0.014505254104733467 -0.006183093413710594
-0.010086692869663239 -0.00436943955719471 0.0028034972492605448
-0.010233886539936066 -0.0021885503083467484 0.0024717473424971104
-0.010037781670689583 0.0001259748387383297 0.002003897912800312
-0.010267689824104309 0.0024509148206561804 0.0012106511276215315
-0.010098240338265896 0.004627179354429245 0.0011485111899673939
-0.00681070052087307 1.1670896128634922e-05 0.003363623982295394
-0.006924220826476812 0.0015578699531033635 0.002596041886135936
-0.0064133028499782085 0.0030034934170544147 0.0025246250443160534
0.10230353474617004 -0.0024222983047366142 -0.0054635703563690186
0.1024039164185524 -0.003199527971446514 -0.0040055252611637115
0.1022782102227211 -0.0015930671943351626 -0.005957486107945442
0.10231480002403259 -0.0007623109850101173 -0.005467128939926624
0.1024387925863266 1.943704774021171e-05 -0.004013316705822945
0.008528363890945911 0.0017917766235768795 0.0008160284487530589
0.024291986599564552 0.0021839106921106577 -0.00036326819099485874
0.04005616903305054 0.0022412266116589308 -0.001542667392641306
0.055815111845731735 0.00195144338067621 -0.002721122931689024
0.06661438941955566 0.001575694652274251 -0.0028223618865013123
0.08580360561609268 0.0008780888747423887 -0.004234534688293934
0.08575668931007385 -0.001339645474217832 -0.004721158184111118
0.0665568932890892 -0.0010980656370520592 -0.0033068303018808365
0.05576455220580101 -0.0009344401769340038 -0.003205034416168928
0.04001506045460701 -0.0006928566144779325 -0.0020264736376702785
0.02426556684076786 -0.00045127508928999305 -0.0008479147218167782
0.008516079746186733 -0.00020916035282425582 0.0003306412836536765
0.008492136374115944 0.0036738445051014423 0.002266411669552326
0.024289578199386597 0.004661861341446638 0.0010863658972084522
0.04008812829852104 0.004999575670808554 -9.387917816638947e-05
0.055876486003398895 0.004664213862270117 -0.001272294670343399
0.06670286506414413 0.004088938236236572 -0.0013730823993682861
0.08591572195291519 0.002962743630632758 -0.002784173935651779
0.008456544019281864 -0.002207239158451557 0.0008289171382784843
0.024212248623371124 -0.0030833773780614138 -0.00034895818680524826
0.039967380464076996 -0.003624164266511798 -0.0015267329290509224
0.055727768689394 -0.00381785468198359 -0.0027054492384195328
0.06653346866369247 -0.003769666887819767 -0.002807842567563057
0.08575036376714706 -0.0035555290523916483 -0.004223438911139965
0.0857994481921196 -0.005634706001728773 -0.0027617700397968292
0.06654597073793411 -0.006276519503444433 -0.0013449294492602348
0.05570715293288231 -0.006523321382701397 -0.0012419121339917183
0.03991596773266792 -0.006374296732246876 -6.298813968896866e-05
0.02413497120141983 -0.0055522010661661625 0.0011141099967062473
0.008352873846888542 -0.004080846905708313 0.0022913990542292595
-0.014705846086144447 -0.005945867393165827 -0.00018569058738648891
-0.014708312228322029 0.006394136231392622 -0.0014524110592901707
-0.014091112650930882 0.00020228397625032812 -0.0005758774932473898
-0.014470487833023071 0.0033970214426517487 -0.001471291994675994
-0.014427785761654377 -0.0029665930196642876 -0.000211791368201375
0.10078437626361847 -0.0007166343275457621 -0.005352712236344814
0.10086230933666229 8.600354340160266e-05 -0.003895975649356842
0.1007724404335022 -0.0024210147093981504 -0.0053490325808525085
0.10074843466281891 -0.0015696021728217602 -0.00584301445633173
0.10086958855390549 -0.0032190459314733744 -0.0038909194990992546
-0.037633225321769714 -0.007703858427703381 -0.004000802058726549
-0.03758927062153816 -0.004799861926585436 -0.004008691757917404
-0.03753066807985306 -0.0009281139355152845 -0.004019209649413824
-0.03748412802815437 0.0021468480117619038 -0.004027563147246838
-0.037425220012664795 0.0060386816039681435 -0.004038138780742884
-0.03738126903772354 0.008942677639424801 -0.004046027548611164
-0.07751501351594925 0.01013269554823637 0.015609142370522022
-0.0775819718837738 0.00570850633084774 0.015621161088347435
-0.07761301845312119 0.003657713532447815 0.015626735985279083
-0.07768546044826508 -0.001128701725974679 0.015639739111065865
-0.07771649956703186 -0.003179494757205248 0.015645310282707214
-0.07778346538543701 -0.007603683974593878 0.0156573299318552
-0.03740324825048447 0.007490680553019047 -0.004042082000523806
-0.037507399916648865 0.0006093670963309705 -0.004023387096822262
-0.03761124983429909 -0.006251859478652477 -0.004004746209830046
-0.037600260227918625 -0.0055258609354496 -0.004006718751043081
-0.03762223944067955 -0.006977858487516642 -0.004002773202955723
-0.03749576210975647 0.0013781076995655894 -0.00402547512203455
-0.03751903399825096 -0.00015937328862491995 -0.004021298140287399
-0.037392258644104004 0.008216679096221924 -0.0040440550073981285
-0.03741423785686493 0.006764681078493595 -0.004040108993649483
-0.07293586432933807 0.005707856267690659 0.013631175272166729
-0.07296916097402573 0.003506940556690097 0.013637152500450611
-0.07278266549110413 0.01209937036037445 0.013589630834758282
-0.0728146880865097 0.009983072057366371 0.013595378957688808
-0.07303760200738907 -0.001129352138377726 0.013649006374180317
-0.07307091355323792 -0.0033303238451480865 0.013654984533786774
-0.07329458743333817 -0.00971783883869648 0.01372673362493515
-0.07326265424489975 -0.007607180625200272 0.013721000403165817
-0.038520582020282745 -0.012904083356261253 -0.003640319686383009
-0.038441844284534454 -0.0077017792500555515 -0.003654454369097948
-0.03840833529829979 -0.0009265656117349863 -0.003643290139734745
-0.03846656158566475 -0.004773514810949564 -0.003632838372141123
-0.03829782083630562 0.006040926557034254 -0.0036643859930336475
-0.03835635632276535 0.002173749031499028 -0.003653879277408123
-0.03829957917332649 0.014148810878396034 -0.0036331000737845898
-0.038377925753593445 0.008972612209618092 -0.0036190366372466087
