-0.0025520953349769115 0.0025520999915897846 0.016202274709939957
-0.002035980811342597 0.0020359857007861137 -0.021106712520122528
-0.002088045934215188 0.0020878342911601067 -0.07668132334947586
-0.01849544607102871 0.02768031880259514 0.11534092575311661
-0.020914627239108086 0.03130088374018669 0.08699963241815567
-0.022445011883974075 0.03359125554561615 0.05865834280848503
-0.02202710323035717 0.03296581283211708 0.03266134485602379
-0.0020051677711308002 0.0030009530019015074 0.016202274709939957
-0.0015996592119336128 0.0023940664250403643 -0.021106712520122528
-0.001640623901039362 0.0024550247471779585 -0.07668132334947586
-0.012739911675453186 0.030756713822484016 0.11534092575311661
-0.014406275004148483 0.034779664129018784 0.08699963241815567
-0.015460419468581676 0.03732459992170334 0.05865834280848503
-0.015172561630606651 0.03662963956594467 0.03266134485602379
-0.0013811822282150388 0.0033344789408147335 0.016202274709939957
-0.0011018632212653756 0.0026601431891322136 -0.021106712520122528
-0.0011301635531708598 0.002727870363742113 -0.07668132334947586
-0.006494795437902212 0.0326511487364769 0.11534092575311661
-0.007344297133386135 0.03692188858985901 0.08699963241815567
-0.007881696335971355 0.039623577147722244 0.05865834280848503
-0.0077349478378891945 0.03888581320643425 0.03266134485602379
-0.0007041192147880793 0.003539864905178547 0.016202274709939957
-0.000561723776627332 0.0028239937964826822 -0.021106712520122528
-0.0005762827349826694 0.002895889338105917 -0.07668132334947586
-8.900471470951743e-08 0.03329082205891609 0.11534092575311661
-8.812131113700161e-08 0.03764522820711136 0.08699963241815567
-8.749231028559734e-08 0.04039985314011574 0.05865834280848503
-8.767659664954408e-08 0.03964764252305031 0.03266134485602379
2.9509148458117807e-09 0.0036092137452214956 0.016202274709939957
2.8360225279300266e-09 0.0028793183155357838 -0.021106712520122528
-2.6533587060839636e-07 0.002952621318399906 -0.07668132334947586
0.006494616623967886 0.0326511487364769 0.11534092575311661
0.007344122976064682 0.03692189231514931 0.08699963241815567
0.007881521247327328 0.039623577147722244 0.05865834280848503
0.0077347708866000175 0.03888581693172455 0.03266134485602379
0.0007041249773465097 0.003539864905178547 0.016202274709939957
0.0005617292481474578 0.0028239937964826822 -0.021106712520122528
0.0005757517646998167 0.002895889338105917 -0.07668132334947586
0.012739737518131733 0.030756717547774315 0.11534092575311661
0.014406098052859306 0.03477966785430908 0.08699963241815567
0.015460243448615074 0.03732460364699364 0.05865834280848503
0.015172384679317474 0.03662963956594467 0.03266134485602379
0.001381188863888383 0.0033344801049679518 0.016202274709939957
0.0011018695076927543 0.002660144353285432 -0.021106712520122528
0.0011296336306259036 0.0027278715278953314 -0.07668132334947586
0.01849527098238468 0.02768031880259514 0.11534092575311661
0.020914454013109207 0.03130088374018669 0.08699963241815567
0.022444838657975197 0.03359125554561615 0.05865834280848503
0.02202693372964859 0.03296581283211708 0.03266134485602379
0.0020051738247275352 0.0030009530019015074 0.016202274709939957
0.0015996650326997042 0.0023940664250403643 -0.021106712520122528
0.0016400932800024748 0.0024550247471779585 -0.07668132334947586
0.023540042340755463 0.023540183901786804 0.11534092575311661
0.02661907859146595 0.026619218289852142 0.08699963241815567
0.028566885739564896 0.02856702357530594 0.05865834280848503
0.028034990653395653 0.028035132214426994 0.03266134485602379
0.0025521013885736465 0.0025520999915897846 0.016202274709939957
0.0020359866321086884 0.0020359859336167574 -0.021106712520122528
0.002087515313178301 0.0020878342911601067 -0.07668132334947586
0.027680180966854095 0.018495414406061172 0.11534092575311661
0.03130074590444565 0.02091459557414055 0.08699963241815567
0.033591128885746 0.02244497835636139 0.05865834280848503
0.032965682446956635 0.022027071565389633 0.03266134485602379
0.003000953933224082 0.0020051728934049606 0.016202274709939957
0.002394067356362939 0.0015996643342077732 -0.021106712520122528
0.0024547057691961527 0.0016404124908149242 -0.07668132334947586
0.03075658157467842 0.01273987628519535 0.11534092575311661
0.03477953374385834 0.014406237751245499 0.08699963241815567
0.037324465811252594 0.015460385009646416 0.05865834280848503
0.036629512906074524 0.015172522515058517 0.03266134485602379
0.0033344801049679518 0.0013811879325658083 0.016202274709939957
0.0026601434219628572 0.0011018689256161451 -0.021106712520122528
0.0027275513857603073 0.0011299526086077094 -0.07668132334947586
0.032651010900735855 0.0064947521314024925 0.11534092575311661
0.036921754479408264 0.007344255223870277 0.08699963241815567
0.0396234504878521 0.007881655357778072 0.05865834280848503
0.0388856865465641 0.0077349054627120495 0.03266134485602379
0.0035398646723479033 0.0007041239296086133 0.016202274709939957
0.0028239928651601076 0.0005617286078631878 -0.021106712520122528
0.0028955694288015366 0.0005760706262663007 -0.07668132334947586
0.033290691673755646 4.27591260176996e-08 0.11534092575311661
0.03764510527253151 4.1157676378134056e-08 0.08699963241815567
0.04039972275495529 4.0707746506996045e-08 0.05865834280848503
0.039647504687309265 4.064520453539444e-08 0.03266134485602379
0.003609215375036001 1.4706753592719224e-09 0.016202274709939957
0.002879318781197071 1.7703718491191012e-09 -0.021106712520122528
0.0029523023404181004 5.3152831469560624e-08 -0.07668132334947586
0.03265099972486496 -0.006494668312370777 0.11534092575311661
0.036921750754117966 -0.007344172336161137 0.08699963241815567
0.0396234430372715 -0.007881572470068932 0.05865834280848503
0.038885682821273804 -0.007734822575002909 0.03266134485602379
0.0035398646723479033 -0.0007041210774332285 0.016202274709939957
0.0028239928651601076 -0.0005617250571958721 -0.021106712520122528
0.0028955694288015366 -0.0005759645137004554 -0.07668132334947586
0.030756572261452675 -0.012739787809550762 0.11534092575311661
0.03477952256798744 -0.014406148344278336 0.08699963241815567
0.0373244546353817 -0.015460299327969551 0.05865834280848503
0.036629509180784225 -0.015172437764704227 0.03266134485602379
0.0033344801049679518 -0.0013811845565214753 0.016202274709939957
0.0026601434219628572 -0.001101864967495203 -0.021106712520122528
0.0027275513857603073 -0.0011298458557575941 -0.07668132334947586
0.02768016792833805 -0.01849532499909401 0.11534092575311661
0.03130073472857475 -0.020914509892463684 0.08699963241815567
0.03359111025929451 -0.022444888949394226 0.05865834280848503
0.03296567127108574 -0.02202698402106762 0.03266134485602379
0.0030009523034095764 -0.002005170099437237 0.016202274709939957
0.002394065959379077 -0.0015996613074094057 -0.021106712520122528
0.0024547043722122908 -0.0016403059707954526 -0.07668132334947586
0.023540029302239418 -0.023540092632174492 0.11534092575311661
0.026619063690304756 -0.02661912888288498 0.08699963241815567
0.028566868975758553 -0.028566941618919373 0.05865834280848503
0.028034979477524757 -0.02803504467010498 0.03266134485602379
0.0025520995259284973 -0.0025520981289446354 0.016202274709939957
0.0020359857007861137 -0.00203598290681839 -0.021106712520122528
0.0020875141490250826 -0.0020877281203866005 -0.07668132334947586
0.018495261669158936 -0.027680227532982826 0.11534092575311661
0.020914440974593163 -0.03130079433321953 0.08699963241815567
0.022444821894168854 -0.033591173589229584 0.05865834280848503
0.02202691324055195 -0.032965727150440216 0.03266134485602379
0.0020051724277436733 -0.0030009488109499216 0.016202274709939957
0.0015996639849618077 -0.002394062001258135 -0.021106712520122528
0.0016400925815105438 -0.0024549169465899467 -0.07668132334947586
0.012739716097712517 -0.030756624415516853 0.11534092575311661
0.014406077563762665 -0.03477957472205162 0.08699963241815567
0.015460223890841007 -0.037324510514736176 0.05865834280848503
0.015172363258898258 -0.036629561334848404 0.03266134485602379
0.00138118676841259 -0.0033344747498631477 0.016202274709939957
0.0011018677614629269 -0.002660138299688697 -0.021106712520122528
0.0011296318843960762 -0.002727762795984745 -0.07668132334947586
0.00649459520354867 -0.03265105187892914 0.11534092575311661
0.0073440964333713055 -0.036921799182891846 0.08699963241815567
0.007881494238972664 -0.03962349146604538 0.05865834280848503
0.007734744809567928 -0.03888572379946709 0.03266134485602379
0.0007041225908324122 -0.0035398597829043865 0.016202274709939957
0.0005617273855023086 -0.002823987975716591 -0.021106712520122528
0.0005757498438470066 -0.002895781071856618 -0.07668132334947586
-1.157266353857267e-07 -0.03329072147607803 0.11534092575311661
-1.1833827784357709e-07 -0.0376451350748539 0.08699963241815567
-1.199203438773111e-07 -0.04039975255727768 0.05865834280848503
-1.195008962895372e-07 -0.03964753821492195 0.03266134485602379
5.387914420174056e-11 -0.003609208855777979 0.016202274709939957
5.248575463134841e-10 -0.0028793122619390488 -0.021106712520122528
-2.6770584327096003e-07 -0.00295251258648932 -0.07668132334947586
-0.0064948252402246 -0.03265104442834854 0.11534092575311661
-0.007344331592321396 -0.03692178055644035 0.08699963241815567
-0.007881734520196915 -0.03962346911430359 0.05865834280848503
-0.007734982762485743 -0.03888571262359619 0.03266134485602379
-0.0007041224744170904 -0.0035398597829043865 0.016202274709939957
-0.0005617262795567513 -0.002823987975716591 -0.021106712520122528
-0.0005762852961197495 -0.002895781071856618 -0.07668132334947586
-0.012739947065711021 -0.030756594613194466 0.11534092575311661
-0.01440630853176117 -0.03477955237030983 0.08699963241815567
-0.015460459515452385 -0.037324484437704086 0.05865834280848503
-0.015172596089541912 -0.03662952408194542 0.03266134485602379
-0.0013811857206746936 -0.003334473818540573 0.016202274709939957
-0.0011018661316484213 -0.0026601373683661222 -0.021106712520122528
-0.0011301665799692273 -0.002727761399000883 -0.07668132334947586
-0.018495481461286545 -0.02768019400537014 0.11534092575311661
-0.02091466449201107 -0.03130074962973595 0.08699963241815567
-0.02244504727423191 -0.033591128885746 0.05865834280848503
-0.022027144208550453 -0.03296568617224693 0.03266134485602379
-0.0020051703322678804 -0.003000945318490267 0.016202274709939957
-0.0015996615402400494 -0.0023940596729516983 -0.021106712520122528
-0.0016406262293457985 -0.00245491461828351 -0.07668132334947586
-0.02354024536907673 -0.02354004979133606 0.11534092575311661
-0.026619281619787216 -0.0266190804541111 0.08699963241815567
-0.02856709063053131 -0.028566889464855194 0.05865834280848503
-0.028035195544362068 -0.028034990653395653 0.03266134485602379
-0.0025520985946059227 -0.002552093006670475 0.016202274709939957
-0.00203598290681839 -0.002035979414358735 -0.021106712520122528
-0.0020880484953522682 -0.002087724395096302 -0.07668132334947586
-0.027680378407239914 -0.01849527657032013 0.11534092575311661
-0.03130094334483147 -0.020914455875754356 0.08699963241815567
-0.03359132632613182 -0.02244483307003975 0.05865834280848503
-0.032965876162052155 -0.022026924416422844 0.03266134485602379
-0.0030009490437805653 -0.002005164511501789 0.016202274709939957
-0.002394062466919422 -0.0015996566507965326 -0.021106712520122528
-0.002455237554386258 -0.0016403014305979013 -0.07668132334947586
-0.030756764113903046 -0.012739730067551136 0.11534092575311661
-0.03477972000837326 -0.014406085945665836 0.08699963241815567
-0.037324655801057816 -0.015460229478776455 0.05865834280848503
-0.03662969917058945 -0.015172368846833706 0.03266134485602379
-0.003334476612508297 -0.0013811789685860276 0.016202274709939957
-0.0026601403951644897 -0.0011018604272976518 -0.021106712520122528
-0.002728084335103631 -0.0011298410827293992 -0.07668132334947586
-0.03265119343996048 -0.006494607776403427 0.11534092575311661
-0.03692193701863289 -0.007344105280935764 0.08699963241815567
-0.039623625576496124 -0.00788150168955326 0.05865834280848503
-0.03888586536049843 -0.007734751794487238 0.03266134485602379
-0.00353986001573503 -0.0007041144999675453 0.016202274709939957
-0.002823988674208522 -0.0005617198767140508 -0.021106712520122528
-0.002896101213991642 -0.0005759591003879905 -0.07668132334947586
-0.004350246395915747 2.1577906128555924e-09 0.01697484776377678
-0.004266657400876284 0.0008486935985274613 0.01697484776377678
-0.004019102547317743 0.0016647703014314175 0.01697484776377678
-0.0036170952953398228 0.002416870789602399 0.01697484776377678
-0.003076087450608611 0.003076092107221484 0.01697484776377678
-0.002416865900158882 0.0036171027459204197 0.01697484776377678
-0.001664764597080648 0.004019108135253191 0.01697484776377678
-0.0008486884762533009 0.004266662988811731 0.01697484776377678
3.0400697514920694e-09 0.00435025105252862 0.01697484776377678
0.0008486941806040704 0.004266663920134306 0.01697484776377678
0.0016647715819999576 0.0040191104635596275 0.01697484776377678
0.002416872186586261 0.0036171027459204197 0.01697484776377678
0.003076092805713415 0.0030760925728827715 0.01697484776377678
0.003617104608565569 0.0024168717209249735 0.01697484776377678
0.00401910999789834 0.001664770650677383 0.01697484776377678
0.004266662988811731 0.0008486930164508522 0.01697484776377678
0.004350252449512482 1.1206098271543397e-09 0.01697484776377678
0.004266662523150444 -0.0008486905717290938 0.01697484776377678
0.004019109532237053 -0.001664767856709659 0.01697484776377678
0.003617102513089776 -0.0024168684612959623 0.01697484776377678
0.0030760918743908405 -0.0030760900117456913 0.01697484776377678
0.0024168705567717552 -0.003617099253460765 0.01697484776377678
0.001664769253693521 -0.00401910487562418 0.01697484776377678
0.0008486915030516684 -0.004266658797860146 0.01697484776377678
-4.517823892769002e-10 -0.004350246395915747 0.01697484776377678
-0.0008486923761665821 -0.004266658797860146 0.01697484776377678
-0.0016647689044475555 -0.004019102547317743 0.01697484776377678
-0.0024168691597878933 -0.003617095062509179 0.01697484776377678
-0.003076090943068266 -0.003076084889471531 0.01697484776377678
-0.0036170987877994776 -0.0024168617092072964 0.01697484776377678
-0.004019106738269329 -0.0016647607553750277 0.01697484776377678
-0.004266659263521433 -0.0008486828883178532 0.01697484776377678
-0.02780337445437908 5.1511200638287846e-08 0.1433487832546234
-0.027269138023257256 0.005424202419817448 0.1433487832546234
-0.025686969980597496 0.010639906860888004 0.1433487832546234
-0.02311766892671585 0.015446729026734829 0.1433487832546234
-0.01965997740626335 0.019659942016005516 0.1433487832546234
-0.015446762554347515 0.023117637261748314 0.1433487832546234
-0.010639943182468414 0.02568693272769451 0.1433487832546234
-0.00542424013838172 0.027269097045063972 0.1433487832546234
-8.99830467915308e-08 0.02780333161354065 0.1433487832546234
0.005424059461802244 0.02726910077035427 0.1433487832546234
0.010639764368534088 0.02568693272769451 0.1433487832546234
0.015446588397026062 0.023117637261748314 0.1433487832546234
0.019659798592329025 0.019659942016005516 0.1433487832546234
0.023117491975426674 0.01544672716408968 0.1433487832546234
0.025686796754598618 0.01063990592956543 0.1433487832546234
0.02726895920932293 0.005424198228865862 0.1433487832546234
0.027803191915154457 4.4882334293561144e-08 0.1433487832546234
0.02726895548403263 -0.005424107890576124 0.1433487832546234
0.025686785578727722 -0.010639814659953117 0.1433487832546234
0.023117484524846077 -0.015446633100509644 0.1433487832546234
0.01965978927910328 -0.019659847021102905 0.1433487832546234
0.015446572564542294 -0.023117544129490852 0.1433487832546234
0.010639747604727745 -0.02568683959543705 0.1433487832546234
0.005424041301012039 -0.027269000187516212 0.1433487832546234
-1.1230025620534434e-07 -0.02780323103070259 0.1433487832546234
-0.0054242657497525215 -0.027268994599580765 0.1433487832546234
-0.010639970190823078 -0.02568681910634041 0.1433487832546234
-0.015446790494024754 -0.023117510601878166 0.1433487832546234
-0.019659999758005142 -0.01965980790555477 0.1433487832546234
-0.02311769314110279 -0.01544659212231636 0.1433487832546234
-0.02568698674440384 -0.010639764368534088 0.1433487832546234
-0.027269143611192703 -0.005424058064818382 0.1433487832546234
-0.030899450182914734 3.486759680981777e-08 -0.08575998246669769
-0.03030572645366192 0.006028210278600454 -0.08575998246669769
-0.028547368943691254 0.01182472798973322 -0.08575998246669769
-0.025691956281661987 0.017166828736662865 -0.08575998246669769
-0.02184922620654106 0.021849216893315315 -0.08575998246669769
-0.017166830599308014 0.025691954419016838 -0.08575998246669769
-0.011824729852378368 0.028547361493110657 -0.08575998246669769
-0.006028217263519764 0.03030572272837162 -0.08575998246669769
-4.297572786526871e-08 0.030899446457624435 -0.08575998246669769
0.006028130184859037 0.03030572645366192 -0.08575998246669769
0.011824646033346653 0.028547368943691254 -0.08575998246669769
0.017166748642921448 0.025691954419016838 -0.08575998246669769
0.021849140524864197 0.021849218755960464 -0.08575998246669769
0.025691883638501167 0.017166828736662865 -0.08575998246669769
0.028547294437885284 0.01182472426444292 -0.08575998246669769
0.03030564822256565 0.006028205621987581 -0.08575998246669769
0.030899371951818466 2.7500675514602335e-08 -0.08575998246669769
0.030305642634630203 -0.0060281516052782536 -0.08575998246669769
0.02854728512465954 -0.011824668385088444 -0.08575998246669769
0.025691868737339973 -0.01716676726937294 -0.08575998246669769
0.0218491293489933 -0.02184915542602539 -0.08575998246669769
0.017166737467050552 -0.025691896677017212 -0.08575998246669769
0.011824632063508034 -0.02854730933904648 -0.08575998246669769
0.006028111092746258 -0.0303056538105011 -0.08575998246669769
-6.77778757562919e-08 -0.030899379402399063 -0.08575998246669769
-0.006028246134519577 -0.030305644497275352 -0.08575998246669769
-0.011824761517345905 -0.02854728139936924 -0.08575998246669769
-0.01716686226427555 -0.025691868737339973 -0.08575998246669769
-0.021849250420928 -0.021849116310477257 -0.08575998246669769
-0.025691984221339226 -0.017166724428534508 -0.08575998246669769
-0.028547391295433044 -0.01182461529970169 -0.08575998246669769
-0.030305732041597366 -0.006028095260262489 -0.08575998246669769
-0.007940658368170261 3.8119999601349264e-08 -0.08324383944272995
-0.007788082584738731 0.0015491737285628915 -0.08324383944272995
-0.007336216513067484 0.0030387770384550095 -0.08324383944272995
-0.0066024246625602245 0.004411602858453989 -0.08324383944272995
-0.005614909343421459 0.00561489537358284 -0.08324383944272995
-0.004411616828292608 0.006602410692721605 -0.08324383944272995
-0.003038790076971054 0.007336202077567577 -0.08324383944272995
-0.001549187465570867 0.007788068614900112 -0.08324383944272995
-5.239485290076118e-08 0.007940645329654217 -0.08324383944272995
0.0015490828081965446 0.007788070011883974 -0.08324383944272995
0.003038686467334628 0.007336202077567577 -0.08324383944272995
0.004411511123180389 0.006602410692721605 -0.08324383944272995
0.00561480363830924 0.005614895839244127 -0.08324383944272995
0.0066023217514157295 0.004411603789776564 -0.08324383944272995
0.007336113136261702 0.003038776572793722 -0.08324383944272995
0.007787979673594236 0.0015491723315790296 -0.08324383944272995
0.007940557785332203 3.622681532533534e-08 -0.08324383944272995
0.007787977810949087 -0.0015491001540794969 -0.08324383944272995
0.007336108945310116 -0.0030387036968022585 -0.08324383944272995
0.006602318491786718 -0.004411528818309307 -0.08324383944272995
0.005614802241325378 -0.005614820867776871 -0.08324383944272995
0.0044115083292126656 -0.00660233898088336 -0.08324383944272995
0.003038681810721755 -0.007336129434406757 -0.08324383944272995
0.0015490775695070624 -0.007787992712110281 -0.08324383944272995
-5.8768819144461304e-08 -0.007940568961203098 -0.08324383944272995
-0.0015491946833208203 -0.0077879903838038445 -0.08324383944272995
-0.0030387970618903637 -0.00733612198382616 -0.08324383944272995
-0.0044116247445344925 -0.006602329667657614 -0.08324383944272995
-0.005614914931356907 -0.005614812485873699 -0.08324383944272995
-0.006602431647479534 -0.004411517642438412 -0.08324383944272995
-0.007336222101002932 -0.0030386894941329956 -0.08324383944272995
-0.007788083516061306 -0.0015490856021642685 -0.08324383944272995
-0.0028943282086402178 5.3863487892158446e-08 -0.07436507940292358
-0.0028387189377099276 0.0005646573263220489 -0.07436507940292358
-0.002674030838534236 0.0011075636139139533 -0.07436507940292358
-0.0024065901525318623 0.001607908634468913 -0.07436507940292358
-0.002046676818281412 0.002046464942395687 -0.07436507940292358
-0.001608120510354638 0.002406379673629999 -0.07436507940292358
-0.0011077747913077474 0.002673818962648511 -0.07436507940292358
-0.0005648690275847912 0.0028385089244693518 -0.07436507940292358
-2.6534939934208523e-07 0.00289411679841578 -0.07436507940292358
0.0005643380573019385 0.0028385089244693518 -0.07436507940292358
0.0011072446359321475 0.002673820126801729 -0.07436507940292358
0.0016075896564871073 0.002406379207968712 -0.07436507940292358
0.0020461459644138813 0.002046464942395687 -0.07436507940292358
0.0024060604628175497 0.0016079089837148786 -0.07436507940292358
0.0026734997518360615 0.0011075637303292751 -0.07436507940292358
0.0028381890151649714 0.0005646569188684225 -0.07436507940292358
0.0028937978204339743 5.317349405231653e-08 -0.07436507940292358
0.0028381890151649714 -0.0005645506898872554 -0.07436507940292358
0.0026734997518360615 -0.0011074570938944817 -0.07436507940292358
0.0024060592986643314 -0.0016078025801107287 -0.07436507940292358
0.002046144800260663 -0.002046358771622181 -0.07436507940292358
0.0016075888415798545 -0.002406272105872631 -0.07436507940292358
0.0011072431225329638 -0.002673711394891143 -0.07436507940292358
0.0005643362528644502 -0.002838400425389409 -0.07436507940292358
-2.67672362497251e-07 -0.00289400783367455 -0.07436507940292358
-0.0005648713558912277 -0.002838400425389409 -0.07436507940292358
-0.0011077775852754712 -0.0026737102307379246 -0.07436507940292358
-0.0016081224894151092 -0.002406269544735551 -0.07436507940292358
-0.0020466791465878487 -0.00204635551199317 -0.07436507940292358
-0.0024065920151770115 -0.0016077981563284993 -0.07436507940292358
-0.002674032934010029 -0.0011074524372816086 -0.07436507940292358
-0.002838720567524433 -0.0005645455094054341 -0.07436507940292358
-0.03161008656024933 5.108145728627278e-08 0.11528629809617996
-0.03100270964205265 0.006166856270283461 0.11528629809617996
-0.02920391596853733 0.012096675112843513 0.11528629809617996
-0.026282837614417076 0.017561623826622963 0.11528629809617996
-0.022351736202836037 0.022351693361997604 0.11528629809617996
-0.017561662942171097 0.026282811537384987 0.11528629809617996
-0.012096709571778774 0.029203884303569794 0.11528629809617996
-0.006166892591863871 0.031002670526504517 0.11528629809617996
-8.919778338167816e-08 0.03161005675792694 0.11528629809617996
0.006166714243590832 0.031002679839730263 0.11528629809617996
0.012096532620489597 0.029203884303569794 0.11528629809617996
0.01756148412823677 0.026282811537384987 0.11528629809617996
0.022351553663611412 0.022351697087287903 0.11528629809617996
0.026282668113708496 0.017561625689268112 0.11528629809617996
0.029203755781054497 0.012096673250198364 0.11528629809617996
0.03100254014134407 0.006166850682348013 0.11528629809617996
0.0316099151968956 4.3545007599732344e-08 0.11528629809617996
0.031002534553408623 -0.006166764069348574 0.11528629809617996
0.029203739017248154 -0.012096583843231201 0.11528629809617996
0.0262826569378376 -0.01756153628230095 0.11528629809617996
0.022351544350385666 -0.02235160768032074 0.11528629809617996
0.017561472952365875 -0.026282716542482376 0.11528629809617996
0.01209651492536068 -0.02920379489660263 0.11528629809617996
0.006166693288832903 -0.031002577394247055 0.11528629809617996
-1.1457055393293558e-07 -0.031609952449798584 0.11528629809617996
-0.006166921928524971 -0.03100256435573101 0.11528629809617996
-0.012096739374101162 -0.02920376881957054 0.11528629809617996
-0.017561692744493484 -0.02628268301486969 0.11528629809617996
-0.022351756691932678 -0.022351568564772606 0.11528629809617996
-0.026282867416739464 -0.01756148599088192 0.11528629809617996
-0.029203934594988823 -0.012096527963876724 0.11528629809617996
-0.031002715229988098 -0.0061667063273489475 0.11528629809617996
-0.035825252532958984 5.0528377926184476e-08 0.08703158795833588
-0.035136878490448 0.006989193148910999 0.08703158795833588
-0.03309822082519531 0.013709747232496738 0.08703158795833588
-0.029787616804242134 0.01990344375371933 0.08703158795833588
-0.025332309305667877 0.025332262739539146 0.08703158795833588
-0.019903482869267464 0.029787588864564896 0.08703158795833588
-0.013709783554077148 0.03309818357229233 0.08703158795833588
-0.006989229004830122 0.03513684123754501 0.08703158795833588
-8.825102781884198e-08 0.035825215280056 0.08703158795833588
0.006989052519202232 0.03513684496283531 0.08703158795833588
0.013709606602787971 0.03309818357229233 0.08703158795833588
0.019903304055333138 0.029787588864564896 0.08703158795833588
0.025332123041152954 0.025332264602184296 0.08703158795833588
0.029787447303533554 0.01990344375371933 0.08703158795833588
0.03309805691242218 0.013709746301174164 0.08703158795833588
0.03513671085238457 0.006989188026636839 0.08703158795833588
0.03582507371902466 4.1987021859313245e-08 0.08703158795833588
0.03513670712709427 -0.006989103741943836 0.08703158795833588
0.03309803828597069 -0.01370965875685215 0.08703158795833588
0.029787437990307808 -0.019903356209397316 0.08703158795833588
0.025332113727927208 -0.02533218078315258 0.08703158795833588
0.019903291016817093 -0.029787497594952583 0.08703158795833588
0.01370958611369133 -0.03309809789061546 0.08703158795833588
0.006989028304815292 -0.03513675555586815 0.08703158795833588
-1.1700717550411355e-07 -0.03582511097192764 0.08703158795833588
-0.0069892629981040955 -0.03513673320412636 0.08703158795833588
-0.01370981615036726 -0.033098071813583374 0.08703158795833588
-0.019903510808944702 -0.0297874566167593 0.08703158795833588
-0.025332331657409668 -0.0253321323543787 0.08703158795833588
-0.02978765033185482 -0.01990330219268799 0.08703158795833588
-0.033098239451646805 -0.0137095982208848 0.08703158795833588
-0.03513688966631889 -0.006989038083702326 0.08703158795833588
-0.03787251561880112 5.08447399738543e-08 0.05858467146754265
-0.03714480251073837 0.007388595957309008 0.05858467146754265
-0.034989651292562485 0.014493204653263092 0.05858467146754265
-0.03148985654115677 0.021040847525000572 0.05858467146754265
-0.026779942214488983 0.026779904961586 0.05858467146754265
-0.021040882915258408 0.03148983418941498 0.05858467146754265
-0.014493237249553204 0.0349896140396595 0.05858467146754265
-0.00738863181322813 0.03714476898312569 0.05858467146754265
-8.774040338721534e-08 0.03787247836589813 0.05858467146754265
0.007388455327600241 0.037144772708415985 0.05858467146754265
0.014493061229586601 0.0349896140396595 0.05858467146754265
0.02104070596396923 0.03148983418941498 0.05858467146754265
0.026779765263199806 0.026779908686876297 0.05858467146754265
0.03148970007896423 0.021040847525000572 0.05858467146754265
0.03498948737978935 0.014493199065327644 0.05858467146754265
0.037144649773836136 0.007388591300696135 0.05858467146754265
0.03787234425544739 4.181521973123381e-08 0.05858467146754265
0.03714463859796524 -0.007388506084680557 0.05858467146754265
0.03498947247862816 -0.014493115246295929 0.05858467146754265
0.03148968517780304 -0.02104075998067856 0.05858467146754265
0.02677975408732891 -0.026779819279909134 0.05858467146754265
0.021040692925453186 -0.031489741057157516 0.05858467146754265
0.014493041671812534 -0.034989528357982635 0.05858467146754265
0.007388428319245577 -0.037144675850868225 0.05858467146754265
-1.1813972378149629e-07 -0.03787238895893097 0.05858467146754265
-0.007388664875179529 -0.03714466094970703 0.05858467146754265
-0.01449327077716589 -0.03498949855566025 0.05858467146754265
-0.021040916442871094 -0.03148970380425453 0.05858467146754265
-0.02677997201681137 -0.026779770851135254 0.05858467146754265
-0.031489890068769455 -0.021040702238678932 0.05858467146754265
-0.034989677369594574 -0.014493051916360855 0.05858467146754265
-0.03714481368660927 -0.007388437166810036 0.05858467146754265
-0.03705722838640213 5.0714824340047926e-08 0.031675420701503754
-0.036345187574625015 0.007229540962725878 0.031675420701503754
-0.03423642739653587 0.014181205071508884 0.031675420701503754
-0.030811967328190804 0.020587895065546036 0.031675420701503754
-0.026203444227576256 0.026203403249382973 0.031675420701503754
-0.02058793045580387 0.030811939388513565 0.031675420701503754
-0.014181237667798996 0.03423639014363289 0.031675420701503754
-0.0072295768186450005 0.03634514659643173 0.031675420701503754
-8.789243111095857e-08 0.03705719858407974 0.031675420701503754
0.007229400333017111 0.03634515032172203 0.031675420701503754
0.014181063510477543 0.03423639014363289 0.031675420701503754
0.020587757229804993 0.030811939388513565 0.031675420701503754
0.026203271001577377 0.02620340697467327 0.031675420701503754
0.03081180527806282 0.020587898790836334 0.031675420701503754
0.03423624858260155 0.01418120227754116 0.031675420701503754
0.036345016211271286 0.007229534909129143 0.031675420701503754
0.0370570570230484 4.187970148450404e-08 0.031675420701503754
0.03634500503540039 -0.007229451090097427 0.031675420701503754
0.03423623740673065 -0.014181118458509445 0.031675420701503754
0.030811790376901627 -0.020587807521224022 0.031675420701503754
0.026203256100416183 -0.026203323155641556 0.031675420701503754
0.0205877423286438 -0.03081185184419155 0.031675420701503754
0.014181043952703476 -0.03423629701137543 0.031675420701503754
0.007229376118630171 -0.03634505346417427 0.031675420701503754
-1.1763745533244219e-07 -0.037057098001241684 0.031675420701503754
-0.007229609880596399 -0.036345042288303375 0.031675420701503754
-0.014181273989379406 -0.034236274659633636 0.031675420701503754
-0.020587965846061707 -0.030811812728643417 0.031675420701503754
-0.026203470304608345 -0.026203276589512825 0.031675420701503754
-0.03081199899315834 -0.020587747916579247 0.031675420701503754
-0.03423644229769707 -0.014181055128574371 0.031675420701503754
-0.03634519875049591 -0.007229382637888193 0.031675420701503754
-0.01421225443482399 5.347381915044025e-08 0.023410439491271973
-0.013939171098172665 0.002772708423435688 0.023410439491271973
-0.01313041616231203 0.005438810680061579 0.023410439491271973
-0.011817067861557007 0.007895908318459988 0.023410439491271973
-0.01004960760474205 0.010049569420516491 0.023410439491271973
-0.007895945571362972 0.011817037127912045 0.023410439491271973
-0.005438849795609713 0.01313037984073162 0.023410439491271973
-0.002772746840491891 0.013939132913947105 0.023410439491271973
-9.259707667297334e-08 0.014212217181921005 0.023410439491271973
0.002772561740130186 0.013939132913947105 0.023410439491271973
0.005438665393739939 0.01313037984073162 0.023410439491271973
0.007895761169493198 0.011817037127912045 0.023410439491271973
0.010049425065517426 0.010049569420516491 0.023410439491271973
0.011816889978945255 0.007895908318459988 0.023410439491271973
0.013130235485732555 0.005438809748739004 0.023410439491271973
0.013938989490270615 0.002772706560790539 0.023410439491271973
0.014212066307663918 5.008534031958334e-08 0.023410439491271973
0.013938985764980316 -0.0027726059779524803 0.023410439491271973
0.013130228966474533 -0.005438711028546095 0.023410439491271973
0.011816883459687233 -0.00789580587297678 0.023410439491271973
0.010049417614936829 -0.010049467906355858 0.023410439491271973
0.00789575558155775 -0.011816930025815964 0.023410439491271973
0.00543865654617548 -0.013130273669958115 0.023410439491271973
0.0027725526597350836 -0.01393902488052845 0.023410439491271973
-1.0400492556073004e-07 -0.014212105423212051 0.023410439491271973
-0.0027727598790079355 -0.013939018361270428 0.023410439491271973
-0.0054388632997870445 -0.013130263425409794 0.023410439491271973
-0.007895959541201591 -0.01181691512465477 0.023410439491271973
-0.010049618780612946 -0.010049449279904366 0.023410439491271973
-0.0118170827627182 -0.00789578352123499 0.023410439491271973
-0.013130424544215202 -0.005438686348497868 0.023410439491271973
-0.01393917202949524 -0.002772579900920391 0.023410439491271973
-0.00715193897485733 5.4617096623132966e-08 0.023410439491271973
-0.007014516741037369 0.0013953099260106683 0.023410439491271973
-0.006607537157833576 0.0027369463350623846 0.023410439491271973
-0.005946633871644735 0.0039734067395329475 0.023410439491271973
-0.00505721103399992 0.005057172384113073 0.023410439491271973
-0.003973445855081081 0.005946597550064325 0.023410439491271973
-0.0027369854506105185 0.006607497576624155 0.023410439491271973
-0.0013953495072200894 0.007014477625489235 0.023410439491271973
-9.41282394251175e-08 0.007151899393647909 0.023410439491271973
0.001395160797983408 0.007014477625489235 0.023410439491271973
0.002736798021942377 0.006607497576624155 0.023410439491271973
0.003973257262259722 0.005946597550064325 0.023410439491271973
0.005057023372501135 0.005057172384113073 0.023410439491271973
0.005946447141468525 0.0039734067395329475 0.023410439491271973
0.006607349496334791 0.002736946102231741 0.023410439491271973
0.007014330476522446 0.0013953089946880937 0.023410439491271973
0.007151749450713396 5.29120498526936e-08 0.023410439491271973
0.007014329079538584 -0.0013952034059911966 0.023410439491271973
0.006607346702367067 -0.0027368408627808094 0.023410439491271973
0.005946443881839514 -0.0039732991717755795 0.023410439491271973
0.005057020112872124 -0.00505706574767828 0.023410439491271973
0.003973254468291998 -0.005946487654000521 0.023410439491271973
0.0027367938309907913 -0.0066073895432055 0.023410439491271973
0.0013951566070318222 -0.0070143695920705795 0.023410439491271973
-9.986888471757993e-08 -0.007151789031922817 0.023410439491271973
-0.00139535591006279 -0.007014366332441568 0.023410439491271973
-0.0027369922026991844 -0.006607383489608765 0.023410439491271973
-0.003973452374339104 -0.005946480669081211 0.023410439491271973
-0.0050572180189192295 -0.005057056434452534 0.023410439491271973
-0.005946640390902758 -0.003973288461565971 0.023410439491271973
-0.006607540883123875 -0.002736828289926052 0.023410439491271973
-0.007014518138021231 -0.001395190367475152 0.023410439491271973
-0.021743524819612503 0.0043250820599496365 -0.0822717696428299
-0.020481953397393227 0.00848392117768526 -0.0822717696428299
-0.018433276563882828 0.012316728942096233 -0.0822717696428299
-0.015676219016313553 0.015676213428378105 -0.0822717696428299
-0.012316737323999405 0.01843326725065708 -0.0822717696428299
-0.008483930490911007 0.02048194594681263 -0.0822717696428299
-0.004325095098465681 0.021743513643741608 -0.0822717696428299
-4.926653218717547e-08 0.02216949127614498 -0.0822717696428299
0.0043249959126114845 0.021743517369031906 -0.0822717696428299
0.008483834564685822 0.02048194594681263 -0.0822717696428299
0.012316643260419369 0.01843326725065708 -0.0822717696428299
0.01567612588405609 0.015676213428378105 -0.0822717696428299
0.018433183431625366 0.012316728942096233 -0.0822717696428299
0.020481862127780914 0.008483918383717537 -0.0822717696428299
0.02174343168735504 0.004325078800320625 -0.0822717696428299
0.022169413045048714 3.051128061315467e-08 -0.0822717696428299
0.02174343168735504 -0.004325018264353275 -0.0822717696428299
0.020481854677200317 -0.008483855053782463 -0.0822717696428299
0.01843317784368992 -0.012316662818193436 -0.0822717696428299
0.015676114708185196 -0.01567615009844303 -0.0822717696428299
0.012316633015871048 -0.018433203920722008 -0.0822717696428299
0.008483821526169777 -0.020481880754232407 -0.0822717696428299
0.004324980545789003 -0.021743446588516235 -0.0822717696428299
-6.706159183522686e-08 -0.02216942049562931 -0.0822717696428299
-0.00432511605322361 -0.02174343541264534 -0.0822717696428299
-0.008483951911330223 -0.020481862127780914 -0.0822717696428299
-0.012316758744418621 -0.018433179706335068 -0.0822717696428299
-0.015676239505410194 -0.015676118433475494 -0.0822717696428299
-0.01843329332768917 -0.012316628359258175 -0.0822717696428299
-0.02048196643590927 -0.008483817800879478 -0.0822717696428299
-0.02174353040754795 -0.0043249777518212795 -0.0822717696428299
-0.022169504314661026 3.5796915653918404e-08 -0.0822717696428299
-0.030305732041597366 -0.006028095260262489 -0.08575998246669769
-0.028547391295433044 -0.01182461529970169 -0.08575998246669769
-0.025691984221339226 -0.017166724428534508 -0.08575998246669769
-0.021849250420928 -0.021849116310477257 -0.08575998246669769
-0.01716686226427555 -0.025691868737339973 -0.08575998246669769
-0.011824761517345905 -0.02854728139936924 -0.08575998246669769
-0.006028246134519577 -0.030305644497275352 -0.08575998246669769
-6.77778757562919e-08 -0.030899379402399063 -0.08575998246669769
0.006028111092746258 -0.0303056538105011 -0.08575998246669769
0.011824632063508034 -0.02854730933904648 -0.08575998246669769
0.017166737467050552 -0.025691896677017212 -0.08575998246669769
0.0218491293489933 -0.02184915542602539 -0.08575998246669769
0.025691868737339973 -0.01716676726937294 -0.08575998246669769
0.02854728512465954 -0.011824668385088444 -0.08575998246669769
0.030305642634630203 -0.0060281516052782536 -0.08575998246669769
0.030899371951818466 2.7500675514602335e-08 -0.08575998246669769
0.03030564822256565 0.006028205621987581 -0.08575998246669769
0.028547294437885284 0.01182472426444292 -0.08575998246669769
0.025691883638501167 0.017166828736662865 -0.08575998246669769
0.021849140524864197 0.021849218755960464 -0.08575998246669769
0.017166748642921448 0.025691954419016838 -0.08575998246669769
0.011824646033346653 0.028547368943691254 -0.08575998246669769
0.006028130184859037 0.03030572645366192 -0.08575998246669769
-4.297572786526871e-08 0.030899446457624435 -0.08575998246669769
-0.006028217263519764 0.03030572272837162 -0.08575998246669769
-0.011824729852378368 0.028547361493110657 -0.08575998246669769
-0.017166830599308014 0.025691954419016838 -0.08575998246669769
-0.02184922620654106 0.021849216893315315 -0.08575998246669769
-0.025691956281661987 0.017166828736662865 -0.08575998246669769
-0.028547368943691254 0.01182472798973322 -0.08575998246669769
-0.03030572645366192 0.006028210278600454 -0.08575998246669769
-0.030899450182914734 3.486759680981777e-08 -0.08575998246669769
-0.03706983104348183 -0.0073735471814870834 -0.08462920784950256
-0.03491903468966484 -0.014463821426033974 -0.08462920784950256
-0.03142630681395531 -0.020998261868953705 -0.08462920784950256
-0.026725899428129196 -0.02672574855387211 -0.08462920784950256
-0.020998427644371986 -0.03142617642879486 -0.08462920784950256
-0.014463989995419979 -0.03491891548037529 -0.08462920784950256
-0.007373720873147249 -0.037069737911224365 -0.08462920784950256
-8.14089560208231e-08 -0.03779597580432892 -0.08462920784950256
0.007373557426035404 -0.03706975281238556 -0.08462920784950256
0.014463837258517742 -0.03491893783211708 -0.08462920784950256
0.02099827490746975 -0.031426217406988144 -0.08462920784950256
0.026725752279162407 -0.026725798845291138 -0.08462920784950256
0.03142618015408516 -0.02099831961095333 -0.08462920784950256
0.03491890802979469 -0.014463887549936771 -0.08462920784950256
0.03706972673535347 -0.007373614702373743 -0.08462920784950256
0.03779596462845802 2.5009974535805668e-08 -0.08462920784950256
0.03706973046064377 0.007373664062470198 -0.08462920784950256
0.03491891548037529 0.014463941566646099 -0.08462920784950256
0.031426191329956055 0.020998375490307808 -0.08462920784950256
0.0267257709056139 0.026725854724645615 -0.08462920784950256
0.020998289808630943 0.03142627328634262 -0.08462920784950256
0.014463855884969234 0.034919001162052155 -0.08462920784950256
0.0073735835030674934 0.03706981614232063 -0.08462920784950256
-5.107084888322788e-08 0.03779604658484459 -0.08462920784950256
-0.007373686879873276 0.037069808691740036 -0.08462920784950256
-0.014463957399129868 0.034918997436761856 -0.08462920784950256
-0.020998386666178703 0.03142627328634262 -0.08462920784950256
-0.02672586962580681 0.026725850999355316 -0.08462920784950256
-0.031426284462213516 0.02099837362766266 -0.08462920784950256
-0.03491901606321335 0.014463943429291248 -0.08462920784950256
-0.03706981986761093 0.007373671047389507 -0.08462920784950256
-0.03779606148600578 3.4021262251826556e-08 -0.08462920784950256
-0.03762543946504593 3.228883826977835e-08 -0.0839512050151825
-0.036902472376823425 0.0073403846472501755 -0.0839512050151825
-0.034761376678943634 0.01439865306019783 -0.0839512050151825
-0.03128441423177719 0.020903585478663445 -0.0839512050151825
-0.026605214923620224 0.026605211198329926 -0.0839512050151825
-0.020903587341308594 0.03128441423177719 -0.0839512050151825
-0.014398652128875256 0.034761372953653336 -0.0839512050151825
-0.007340387441217899 0.036902472376823425 -0.0839512050151825
-3.584152352686942e-08 0.03762543573975563 -0.0839512050151825
0.007340313866734505 0.03690247982740402 -0.0839512050151825
0.014398581348359585 0.034761376678943634 -0.0839512050151825
0.020903518423438072 0.03128441423177719 -0.0839512050151825
0.02660514786839485 0.026605216786265373 -0.0839512050151825
0.03128435090184212 0.020903587341308594 -0.0839512050151825
0.03476130962371826 0.014398650266230106 -0.0839512050151825
0.03690241277217865 0.0073403785936534405 -0.0839512050151825
0.03762537240982056 2.331822912537973e-08 -0.0839512050151825
0.03690240904688835 -0.007340331561863422 -0.0839512050151825
0.034761302173137665 -0.014398599974811077 -0.0839512050151825
0.03128433600068092 -0.020903535187244415 -0.0839512050151825
0.02660512737929821 -0.026605159044265747 -0.0839512050151825
0.020903505384922028 -0.03128436207771301 -0.0839512050151825
0.014398563653230667 -0.03476131707429886 -0.0839512050151825
0.007340289186686277 -0.03690242022275925 -0.0839512050151825
-6.60426877630016e-08 -0.03762537240982056 -0.0839512050151825
-0.0073404209688305855 -0.036902401596307755 -0.0839512050151825
-0.014398685656487942 -0.034761298447847366 -0.0839512050151825
-0.02090362459421158 -0.03128432109951973 -0.0839512050151825
-0.02660524658858776 -0.026605112478137016 -0.0839512050151825
-0.031284432858228683 -0.02090347558259964 -0.0839512050151825
-0.034761399030685425 -0.014398534782230854 -0.0839512050151825
-0.03690248727798462 -0.007340264972299337 -0.0839512050151825
-0.030899450182914734 3.486759680981777e-08 -0.08575998246669769
-0.03030572645366192 0.006028210278600454 -0.08575998246669769
-0.028547368943691254 0.01182472798973322 -0.08575998246669769
-0.025691956281661987 0.017166828736662865 -0.08575998246669769
-0.02184922620654106 0.021849216893315315 -0.08575998246669769
-0.017166830599308014 0.025691954419016838 -0.08575998246669769
-0.011824729852378368 0.028547361493110657 -0.08575998246669769
-0.006028217263519764 0.03030572272837162 -0.08575998246669769
-4.297572786526871e-08 0.030899446457624435 -0.08575998246669769
0.006028130184859037 0.03030572645366192 -0.08575998246669769
0.011824646033346653 0.028547368943691254 -0.08575998246669769
0.017166748642921448 0.025691954419016838 -0.08575998246669769
0.021849140524864197 0.021849218755960464 -0.08575998246669769
0.025691883638501167 0.017166828736662865 -0.08575998246669769
0.028547294437885284 0.01182472426444292 -0.08575998246669769
0.03030564822256565 0.006028205621987581 -0.08575998246669769
0.030899371951818466 2.7500675514602335e-08 -0.08575998246669769
0.030305642634630203 -0.0060281516052782536 -0.08575998246669769
0.02854728512465954 -0.011824668385088444 -0.08575998246669769
0.025691868737339973 -0.01716676726937294 -0.08575998246669769
0.0218491293489933 -0.02184915542602539 -0.08575998246669769
0.017166737467050552 -0.025691896677017212 -0.08575998246669769
0.011824632063508034 -0.02854730933904648 -0.08575998246669769
0.006028111092746258 -0.0303056538105011 -0.08575998246669769
-6.77778757562919e-08 -0.030899379402399063 -0.08575998246669769
-0.006028246134519577 -0.030305644497275352 -0.08575998246669769
-0.011824761517345905 -0.02854728139936924 -0.08575998246669769
-0.01716686226427555 -0.025691868737339973 -0.08575998246669769
-0.021849250420928 -0.021849116310477257 -0.08575998246669769
-0.025691984221339226 -0.017166724428534508 -0.08575998246669769
-0.028547391295433044 -0.01182461529970169 -0.08575998246669769
-0.030305732041597366 -0.006028095260262489 -0.08575998246669769
-0.03675374388694763 -0.0073106735944747925 -0.08575998246669769
-0.034621283411979675 -0.014340495690703392 -0.08575998246669769
-0.031158341094851494 -0.020819218829274178 -0.08575998246669769
-0.02649800293147564 -0.026497868821024895 -0.08575998246669769
-0.020819369703531265 -0.031158220022916794 -0.08575998246669769
-0.014340654015541077 -0.03462117165327072 -0.08575998246669769
-0.007310838438570499 -0.03675365447998047 -0.08575998246669769
-7.180085503932787e-08 -0.03747370466589928 -0.08575998246669769
0.007310695480555296 -0.036753665655851364 -0.08575998246669769
0.014340518973767757 -0.03462120145559311 -0.08575998246669769
0.02081923931837082 -0.03115825727581978 -0.08575998246669769
0.02649787999689579 -0.026497917249798775 -0.08575998246669769
0.03115822561085224 -0.020819276571273804 -0.08575998246669769
0.03462117165327072 -0.014340558089315891 -0.08575998246669769
0.03675365075469017 -0.007310741115361452 -0.08575998246669769
0.03747370094060898 2.4901552819756034e-08 -0.08575998246669769
0.03675365447998047 0.007310792338103056 -0.08575998246669769
0.034621190279722214 0.014340612106025219 -0.08575998246669769
0.031158244237303734 0.02081933245062828 -0.08575998246669769
0.026497898623347282 0.0264979749917984 -0.08575998246669769
0.020819250494241714 0.031158311292529106 -0.08575998246669769
0.014340534806251526 0.034621257334947586 -0.08575998246669769
0.0073107206262648106 0.03675372898578644 -0.08575998246669769
-4.172153467152384e-08 0.03747377172112465 -0.08575998246669769
-0.007310805376619101 0.03675372526049614 -0.08575998246669769
-0.014340619556605816 0.03462124988436699 -0.08575998246669769
-0.02081933245062828 0.031158311292529106 -0.08575998246669769
-0.026497971266508102 0.026497971266508102 -0.08575998246669769
-0.031158313155174255 0.02081933245062828 -0.08575998246669769
-0.034621261060237885 0.014340614899992943 -0.08575998246669769
-0.036753732711076736 0.007310797926038504 -0.08575998246669769
-0.037473779171705246 3.383601665518654e-08 -0.08575998246669769
-0.037473779171705246 3.383601665518654e-08 -0.08575998246669769
-0.036753732711076736 0.007310797926038504 -0.08575998246669769
-0.034621261060237885 0.014340614899992943 -0.08575998246669769
-0.031158313155174255 0.02081933245062828 -0.08575998246669769
-0.026497971266508102 0.026497971266508102 -0.08575998246669769
-0.02081933245062828 0.031158311292529106 -0.08575998246669769
-0.014340619556605816 0.03462124988436699 -0.08575998246669769
-0.007310805376619101 0.03675372526049614 -0.08575998246669769
-4.172153467152384e-08 0.03747377172112465 -0.08575998246669769
0.0073107206262648106 0.03675372898578644 -0.08575998246669769
0.014340534806251526 0.034621257334947586 -0.08575998246669769
0.020819250494241714 0.031158311292529106 -0.08575998246669769
0.026497898623347282 0.0264979749917984 -0.08575998246669769
0.031158244237303734 0.02081933245062828 -0.08575998246669769
0.034621190279722214 0.014340612106025219 -0.08575998246669769
0.03675365447998047 0.007310792338103056 -0.08575998246669769
0.03747370094060898 2.4901552819756034e-08 -0.08575998246669769
0.03675365075469017 -0.007310741115361452 -0.08575998246669769
0.03462117165327072 -0.014340558089315891 -0.08575998246669769
0.03115822561085224 -0.020819276571273804 -0.08575998246669769
