-7.160490156365995e-08 0.032510459423065186 -0.04305082559585571
0.006342409178614616 0.0318857803940773 -0.04305082559585571
0.012441153638064861 0.030035745352506638 -0.04305082559585571
0.018061786890029907 0.02703145518898964 -0.04305082559585571
0.02298831380903721 0.02298836037516594 -0.04305082559585571
0.02703140862286091 0.018061833456158638 -0.04305082559585571
0.030035696923732758 0.012441202066838741 -0.04305082559585571
0.03188573196530342 0.0063424608670175076 -0.04305082559585571
0.032510410994291306 -1.9120703242947457e-08 -0.04305082559585571
0.03188573569059372 -0.006342498119920492 -0.04305082559585571
0.030035700649023056 -0.012441241182386875 -0.04305082559585571
0.02703140862286091 -0.01806187815964222 -0.04305082559585571
0.02298831380903721 -0.02298840507864952 -0.04305082559585571
0.018061785027384758 -0.02703150361776352 -0.04305082559585571
0.01244114525616169 -0.030035795643925667 -0.04305082559585571
0.006342402193695307 -0.03188582509756088 -0.04305082559585571
-8.219819846999599e-08 -0.03251050412654877 -0.04305082559585571
-0.006342565640807152 -0.03188582509756088 -0.04305082559585571
-0.012441309168934822 -0.03003578633069992 -0.04305082559585571
-0.01806194707751274 -0.027031494304537773 -0.04305082559585571
-0.022988468408584595 -0.022988392040133476 -0.04305082559585571
-0.027031563222408295 -0.018061859533190727 -0.04305082559585571
-0.030035855248570442 -0.012441221624612808 -0.04305082559585571
-0.03188588470220566 -0.006342473439872265 -0.04305082559585571
-0.032510556280612946 9.816922386107763e-09 -0.04305082559585571
-0.03188587352633476 0.0063424925319850445 -0.04305082559585571
-0.030035827308893204 0.012441235594451427 -0.04305082559585571
-0.02703152969479561 0.018061866983771324 -0.04305082559585571
-0.022988425567746162 0.022988392040133476 -0.04305082559585571
-0.018061894923448563 0.02703148126602173 -0.04305082559585571
-0.01244125235825777 0.03003576770424843 -0.04305082559585571
-0.0063425032421946526 0.031885791569948196 -0.04305082559585571
-7.161038695358002e-08 0.03234326094388962 -0.028234116733074188
-7.144678448867126e-08 0.032006192952394485 -0.013417406938970089
-7.125539269736691e-08 0.03068537637591362 0.0013993028551340103
-7.091195897146463e-08 0.02838275209069252 0.017980482429265976
-6.922402917552972e-08 0.024409625679254532 0.026677966117858887
0.004762017168104649 0.02394060231745243 0.026677966117858887
0.005537133663892746 0.02783738262951374 0.01798047497868538
0.005986353382468224 0.030095761641860008 0.0013992991298437119
0.0062440321780741215 0.0313911996781826 -0.013417410664260387
0.006309791002422571 0.03172179311513901 -0.028234120458364487
0.009341098368167877 0.022551551461219788 0.026677966117858887
0.010861546732485294 0.026222242042422295 0.01798047497868538
0.011742722243070602 0.028349589556455612 0.0013992991298437119
0.012248177081346512 0.02956986613571644 -0.013417410664260387
0.012377168983221054 0.029881279915571213 -0.028234120458364487
0.013561205938458443 0.02029585838317871 0.026677966117858887
0.01576855219900608 0.02359938621520996 0.01798047497868538
0.01704782247543335 0.02551395073533058 0.0013992991298437119
0.017781632021069527 0.02661217376589775 -0.013417410664260387
0.01796889491379261 0.026892436668276787 -0.028234120458364487
0.017260156571865082 0.017260205000638962 0.026677966117858887
0.020069578662514687 0.020069628953933716 0.01798047497868538
0.02169778198003769 0.02169783040881157 0.0013992991298437119
0.02263173833489418 0.02263178676366806 -0.013417410664260387
0.022870084270834923 0.022870134562253952 -0.028234120458364487
0.02029580995440483 0.013561252504587173 0.026677966117858887
0.02359933778643608 0.01576860249042511 0.01798047497868538
0.02551390416920185 0.01704787090420723 0.0013992991298437119
0.02661212533712387 0.017781678587198257 -0.013417410664260387
0.026892391964793205 0.01796894520521164 -0.028234120458364487
0.022551503032445908 0.009341145865619183 0.026677966117858887
0.026222191751003265 0.010861596092581749 0.01798047497868538
0.028349537402391434 0.011742771603167057 0.0013992991298437119
0.02956981770694256 0.012248226441442966 -0.013417410664260387
0.029881227761507034 0.012377218343317509 -0.028234120458364487
0.0239405520260334 0.0047620669938623905 0.026677966117858887
0.027837330475449562 0.005537185352295637 0.01798047497868538
0.030095713213086128 0.00598640413954854 0.0013992991298437119
0.03139115497469902 0.006244082935154438 -0.013417410664260387
0.03172174468636513 0.006309841759502888 -0.028234120458364487
0.024409573525190353 -1.814183292481175e-08 0.026677966117858887
0.02838270179927349 -1.825941886579585e-08 0.01798047497868538
0.03068532794713974 -1.873476662694884e-08 0.0013992991298437119
0.032006148248910904 -1.9049684496508235e-08 -0.013417410664260387
0.032343219965696335 -1.9143744367511317e-08 -0.028234120458364487
0.02394055388867855 -0.0047621033154428005 0.026677966117858887
0.02783733420073986 -0.0055372207425534725 0.01798047497868538
0.030095716938376427 -0.005986441858112812 0.0013992991298437119
0.03139115869998932 -0.00624412065371871 -0.013417410664260387
0.03172174468636513 -0.006309879943728447 -0.028234120458364487
0.022551503032445908 -0.009341184049844742 0.026677966117858887
0.026222193613648415 -0.010861632414162159 0.01798047497868538
0.028349537402391434 -0.011742810718715191 0.0013992991298437119
0.02956981770694256 -0.012248266488313675 -0.013417410664260387
0.029881231486797333 -0.012377256527543068 -0.028234120458364487
0.02029580995440483 -0.013561292551457882 0.026677966117858887
0.02359933778643608 -0.015768643468618393 0.01798047497868538
0.02551390416920185 -0.01704791560769081 0.0013992991298437119
0.02661212533712387 -0.01778171956539154 -0.013417410664260387
0.026892391964793205 -0.01796898990869522 -0.028234120458364487
0.017260156571865082 -0.017260247841477394 0.026677966117858887
0.020069578662514687 -0.020069673657417297 0.01798047497868538
0.02169778198003769 -0.0216978769749403 0.0013992991298437119
0.02263173833489418 -0.02263183519244194 -0.013417410664260387
0.022870084270834923 -0.022870181128382683 -0.028234120458364487
0.013561203144490719 -0.020295903086662292 0.026677966117858887
0.01576855219900608 -0.02359943650662899 0.01798047497868538
0.01704782247543335 -0.02551399916410446 0.0013992991298437119
0.017781630158424377 -0.02661222033202648 -0.013417410664260387
0.01796889491379261 -0.026892486959695816 -0.028234120458364487
0.009341093711555004 -0.02255159802734852 0.026677966117858887
0.010861543007194996 -0.026222283020615578 0.01798047497868538
0.01174271572381258 -0.028349636122584343 0.0013992991298437119
0.012248171493411064 -0.02956991083920002 -0.013417410664260387
0.012377164326608181 -0.029881324619054794 -0.028234120458364487
0.004762010183185339 -0.023940643295645714 0.026677966117858887
0.005537126678973436 -0.02783742919564247 0.01798047497868538
0.005986345466226339 -0.030095810070633888 0.0013992991298437119
0.0062440247274935246 -0.03139125555753708 -0.013417410664260387
0.0063097826205194 -0.03172184154391289 -0.028234120458364487
-7.717773087279056e-08 -0.024409670382738113 0.026677966117858887
-8.016022690071622e-08 -0.02838279865682125 0.01798047497868538
-8.125398665015382e-08 -0.030685417354106903 0.0013992991298437119
-8.187571864937127e-08 -0.032006241381168365 -0.013417410664260387
-8.214917102122854e-08 -0.032343316823244095 -0.028234120458364487
-0.004762164782732725 -0.023940639570355415 0.026677966117858887
-0.005537286400794983 -0.027837425470352173 0.01798047497868538
-0.005986507516354322 -0.03009580634534359 0.0013992991298437119
-0.006244187243282795 -0.031391244381666183 -0.013417410664260387
-0.006309946533292532 -0.03172183781862259 -0.028234120458364487
-0.00934124831110239 -0.022551588714122772 0.026677966117858887
-0.010861700400710106 -0.02622227743268013 0.01798047497868538
-0.011742877773940563 -0.0283496230840683 0.0013992991298437119
-0.012248333543539047 -0.029569905251264572 -0.013417410664260387
-0.01237732544541359 -0.029881319031119347 -0.028234120458364487
-0.013561353087425232 -0.020295893773436546 0.026677966117858887
-0.015768708661198616 -0.023599427193403244 0.01798047497868538
-0.017047978937625885 -0.025513987988233566 0.0013992991298437119
-0.017781788483262062 -0.026612209156155586 -0.013417410664260387
-0.017969056963920593 -0.026892472058534622 -0.028234120458364487
-0.01726030744612217 -0.017260238528251648 0.026677966117858887
-0.020069735124707222 -0.020069660618901253 0.01798047497868538
-0.021697938442230225 -0.021697860211133957 0.0013992991298437119
-0.022631898522377014 -0.022631818428635597 -0.013417410664260387
-0.022870244458317757 -0.02287016436457634 -0.028234120458364487
-0.02029595896601677 -0.013561281375586987 0.026677966117858887
-0.023599496111273766 -0.01576863043010235 0.01798047497868538
-0.025514062494039536 -0.017047898843884468 0.0013992991298437119
-0.026612281799316406 -0.017781704664230347 -0.013417410664260387
-0.026892544701695442 -0.017968975007534027 -0.028234120458364487
-0.022551652044057846 -0.009341169148683548 0.026677966117858887
-0.026222342625260353 -0.010861615650355816 0.01798047497868538
-0.02834969200193882 -0.011742792092263699 0.0013992991298437119
-0.029569972306489944 -0.012248246930539608 -0.013417410664260387
-0.02988138422369957 -0.012377237901091576 -0.028234120458364487
-0.023940695449709892 -0.0047620851546525955 0.026677966117858887
-0.0278374832123518 -0.005537199787795544 0.01798047497868538
-0.030095864087343216 -0.005986419040709734 0.0013992991298437119
-0.03139130771160126 -0.00624409643933177 -0.013417410664260387
-0.031721897423267365 -0.006309855729341507 -0.028234120458364487
-0.024409720674157143 3.5852274482550683e-09 0.026677966117858887
-0.02838284894824028 7.0041039634816116e-09 0.01798047497868538
-0.030685467645525932 8.578347809873321e-09 0.0013992991298437119
-0.03200628608465195 9.439096615437848e-09 -0.013417410664260387
-0.032343361526727676 9.645058973717369e-09 -0.028234120458364487
-0.023940686136484146 0.0047620912082493305 0.026677966117858887
-0.027837468311190605 0.005537212360650301 0.01798047497868538
-0.03009585104882717 0.005986434407532215 0.0013992991298437119
-0.031391292810440063 0.006244115065783262 -0.013417410664260387
-0.03172188252210617 0.006309874355792999 -0.028234120458364487
-0.022551635280251503 0.009341171942651272 0.026677966117858887
-0.02622232586145401 0.010861624963581562 0.01798047497868538
-0.028349673375487328 0.011742804199457169 0.0013992991298437119
-0.029569948092103004 0.012248260900378227 -0.013417410664260387
-0.02988135628402233 0.01237725093960762 -0.028234120458364487
-0.02029593475162983 0.013561276718974113 0.026677966117858887
-0.023599468171596527 0.01576863043010235 0.01798047497868538
-0.0255140233784914 0.017047900706529617 0.0013992991298437119
-0.02661224640905857 0.017781710252165794 -0.013417410664260387
-0.026892511174082756 0.017968976870179176 -0.028234120458364487
-0.017260272055864334 0.017260227352380753 0.026677966117858887
-0.020069696009159088 0.020069653168320656 0.01798047497868538
-0.02169789932668209 0.02169785648584366 0.0013992991298437119
-0.022631853818893433 0.0226318147033453 -0.013417410664260387
-0.022870197892189026 0.02287016436457634 -0.028234120458364487
-0.013561314903199673 0.020295877009630203 0.026677966117858887
-0.015768662095069885 0.02359941601753235 0.01798047497868538
-0.017047930508852005 0.02551397681236267 0.0013992991298437119
-0.017781738191843033 0.02661219984292984 -0.013417410664260387
-0.017969001084566116 0.026892460882663727 -0.028234120458364487
-0.009341204538941383 0.02255156822502613 0.026677966117858887
-0.010861649177968502 0.02622225508093834 0.01798047497868538
-0.011742822825908661 0.028349600732326508 0.0013992991298437119
-0.012248276732861996 0.02956988662481308 -0.013417410664260387
-0.012377267703413963 0.029881296679377556 -0.028234120458364487
-0.004762118682265282 0.023940609768033028 0.026677966117858887
-0.0055372328497469425 0.027837391942739487 0.01798047497868538
-0.005986449774354696 0.030095770955085754 0.0013992991298437119
-0.006244126707315445 0.031391214579343796 -0.013417410664260387
-0.006309885531663895 0.0317218042910099 -0.028234120458364487
-6.858756051997261e-08 0.01756611466407776 0.026677966117858887
0.0034269148018211126 0.017228586599230766 0.026677966117858887
0.006722202058881521 0.016228973865509033 0.026677966117858887
0.009759155102074146 0.014605686999857426 0.026677966117858887
0.012421065010130405 0.012421113438904285 0.026677966117858887
0.01460563950240612 0.009759202599525452 0.026677966117858887
0.016228923574090004 0.0067222509533166885 0.026677966117858887
0.017228536307811737 0.003426964860409498 0.026677966117858887
0.01756606623530388 -1.682619377163519e-08 0.026677966117858887
0.017228536307811737 -0.0034269997850060463 0.026677966117858887
0.016228923574090004 -0.0067222835496068 0.026677966117858887
0.01460563950240612 -0.009759239852428436 0.026677966117858887
0.012421065010130405 -0.012421151623129845 0.026677966117858887
0.009759153239428997 -0.014605728909373283 0.026677966117858887
0.0067221978679299355 -0.016229014843702316 0.026677966117858887
0.0034269096795469522 -0.0172286294400692 0.026677966117858887
-7.43113375278881e-08 -0.01756615750491619 0.026677966117858887
-0.0034270586911588907 -0.0172286257147789 0.026677966117858887
-0.006722345016896725 -0.01622900925576687 0.026677966117858887
-0.009759298525750637 -0.014605723321437836 0.026677966117858887
-0.01242121122777462 -0.012421145103871822 0.026677966117858887
-0.014605781994760036 -0.00975923240184784 0.026677966117858887
-0.016229068860411644 -0.006722273770719767 0.026677966117858887
-0.017228679731488228 -0.0034269860479980707 0.026677966117858887
-0.01756620593369007 -1.1905550989510516e-09 0.026677966117858887
-0.01722867228090763 0.0034269827883690596 0.026677966117858887
-0.0162290558218956 0.006722269579768181 0.026677966117858887
-0.014605767093598843 0.009759222157299519 0.026677966117858887
-0.012421186082065105 0.012421129271388054 0.026677966117858887
-0.009759270586073399 0.01460570003837347 0.026677966117858887
-0.006722313351929188 0.01622898504137993 0.026677966117858887
-0.0034270258620381355 0.017228594049811363 0.026677966117858887
-1.4834111716766074e-09 0.01977885328233242 0.03863826394081116
0.0038586631417274475 0.019398808479309082 0.03863826394081116
0.0075690425001084805 0.018273279070854187 0.03863826394081116
0.010988546535372734 0.01644551381468773 0.03863826394081116
0.013985765166580677 0.013985760509967804 0.03863826394081116
0.016445521265268326 0.010988540016114712 0.03863826394081116
0.018273282796144485 0.007569036912173033 0.03863826394081116
0.01939881220459938 0.003858659416437149 0.03863826394081116
0.019778860732913017 -3.79694897745253e-09 0.03863826394081116
0.01939881406724453 -0.0038586680311709642 0.03863826394081116
0.018273282796144485 -0.007569043897092342 0.03863826394081116
0.016445521265268326 -0.010988551191985607 0.03863826394081116
0.013985765166580677 -0.0139857716858387 0.03863826394081116
0.010988544672727585 -0.016445530578494072 0.03863826394081116
0.007569037843495607 -0.01827329583466053 0.03863826394081116
0.0038586577866226435 -0.019398825243115425 0.03863826394081116
-7.928182554906016e-09 -0.019778871908783913 0.03863826394081116
-0.0038586738519370556 -0.019398821517825127 0.03863826394081116
-0.007569052278995514 -0.018273288384079933 0.03863826394081116
-0.01098855771124363 -0.016445524990558624 0.03863826394081116
-0.013985779136419296 -0.013985765166580677 0.03863826394081116
-0.016445530578494072 -0.010988542810082436 0.03863826394081116
-0.01827329583466053 -0.007569032721221447 0.03863826394081116
-0.019398821517825127 -0.0038586528971791267 0.03863826394081116
-0.019778866320848465 1.3808240773016678e-08 0.03863826394081116
-0.01939881406724453 0.0038586794398725033 0.03863826394081116
-0.018273280933499336 0.007569058332592249 0.03863826394081116
-0.01644551381468773 0.010988561436533928 0.03863826394081116
-0.013985751196742058 0.013985778205096722 0.03863826394081116
-0.010988525114953518 0.016445528715848923 0.03863826394081116
-0.0075690168887376785 0.01827329210937023 0.03863826394081116
-0.0038586368318647146 0.01939881592988968 0.03863826394081116
-1.2949895600300465e-09 0.016784025356173515 0.03863826394081116
0.0032744009513407946 0.016461525112390518 0.03863826394081116
0.0064229718409478664 0.01550641842186451 0.03863826394081116
0.00932470802217722 0.013955406844615936 0.03863826394081116
0.011868100613355637 0.011868098750710487 0.03863826394081116
0.013955412432551384 0.009324704296886921 0.03863826394081116
0.015506421215832233 0.006422966718673706 0.03863826394081116
0.016461526975035667 0.0032743981573730707 0.03863826394081116
0.016784032806754112 -3.0888065438716694e-09 0.03863826394081116
0.016461526975035667 -0.003274405375123024 0.03863826394081116
0.015506421215832233 -0.006422972772270441 0.03863826394081116
0.013955412432551384 -0.009324711747467518 0.03863826394081116
0.011868100613355637 -0.011868108063936234 0.03863826394081116
0.009324707090854645 -0.013955419883131981 0.03863826394081116
0.006422967649996281 -0.015506431460380554 0.03863826394081116
0.003274396527558565 -0.016461538150906563 0.03863826394081116
-6.763922311137094e-09 -0.01678404025733471 0.03863826394081116
-0.003274410730227828 -0.016461534425616264 0.03863826394081116
-0.006422979291528463 -0.015506424941122532 0.03863826394081116
-0.00932471826672554 -0.013955415226519108 0.03863826394081116
-0.011868113651871681 -0.011868101544678211 0.03863826394081116
-0.01395542174577713 -0.009324705228209496 0.03863826394081116
-0.01550643052905798 -0.006422962062060833 0.03863826394081116
-0.016461536288261414 -0.003274392569437623 0.03863826394081116
-0.01678403466939926 1.1850680436964467e-08 0.03863826394081116
-0.016461530700325966 0.003274414921179414 0.03863826394081116
-0.015506420284509659 0.006422984413802624 0.03863826394081116
-0.013955404981970787 0.009324721060693264 0.03863826394081116
-0.011868089437484741 0.011868113651871681 0.03863826394081116
-0.009324691258370876 0.013955420814454556 0.03863826394081116
-0.006422949023544788 0.015506429597735405 0.03863826394081116
-0.0032743792980909348 0.016461528837680817 0.03863826394081116
-7.062222806553109e-08 0.023469584062695503 -0.04305082559585571
0.004578622058033943 0.023018622770905495 -0.04305082559585571
0.008981357328593731 0.021683067083358765 -0.04305082559585571
0.013038941659033298 0.019514242187142372 -0.04305082559585571
0.016595445573329926 0.016595494002103806 -0.04305082559585571
0.019514191895723343 0.013038992881774902 -0.04305082559585571
0.021683013066649437 0.008981408551335335 -0.04305082559585571
0.023018570616841316 0.004578675143420696 -0.04305082559585571
0.023469533771276474 -1.6774651001583152e-08 -0.04305082559585571
0.023018570616841316 -0.004578707739710808 -0.04305082559585571
0.021683016791939735 -0.008981443010270596 -0.04305082559585571
0.019514191895723343 -0.013039031066000462 -0.04305082559585571
0.016595445573329926 -0.01659553311765194 -0.04305082559585571
0.01303893979638815 -0.019514279440045357 -0.04305082559585571
0.008981354534626007 -0.0216831061989069 -0.04305082559585571
0.004578615538775921 -0.02301866188645363 -0.04305082559585571
-7.82695721568416e-08 -0.023469621315598488 -0.04305082559585571
-0.004578772932291031 -0.02301866002380848 -0.04305082559585571
-0.008981509134173393 -0.0216831024736166 -0.04305082559585571
-0.01303909718990326 -0.01951427571475506 -0.04305082559585571
-0.01659560017287731 -0.016595521941781044 -0.04305082559585571
-0.01951434276998043 -0.013039018958806992 -0.04305082559585571
-0.021683162078261375 -0.008981429971754551 -0.04305082559585571
-0.023018714040517807 -0.004578690510243177 -0.04305082559585571
-0.023469675332307816 4.115669138826661e-09 -0.04305082559585571
-0.02301870658993721 0.004578698426485062 -0.04305082559585571
-0.021683145314455032 0.00898143369704485 -0.04305082559585571
-0.019514314830303192 0.013039018027484417 -0.04305082559585571
-0.016595564782619476 0.016595514491200447 -0.04305082559585571
-0.013039059937000275 0.019514258950948715 -0.04305082559585571
-0.008981467224657536 0.02168308012187481 -0.04305082559585571
-0.004578727297484875 0.023018628358840942 -0.04305082559585571
-6.984680567256873e-08 0.012935522012412548 -0.04305082559585571
0.0025235279463231564 0.012686967849731445 -0.04305082559585571
0.004950147122144699 0.011950860731303692 -0.04305082559585571
0.007186530623584986 0.010755489580333233 -0.04305082559585571
0.0091467360034585 0.009146790020167828 -0.04305082559585571
0.01075543649494648 0.007186582777649164 -0.04305082559585571
0.011950807645916939 0.004950200207531452 -0.04305082559585571
0.012686915695667267 0.0025235828943550587 -0.04305082559585571
0.012935468927025795 -1.451415965192382e-08 -0.04305082559585571
0.012686915695667267 -0.0025236117653548717 -0.04305082559585571
0.011950809508562088 -0.004950228612869978 -0.04305082559585571
0.01075543649494648 -0.007186614442616701 -0.04305082559585571
0.0091467360034585 -0.009146821685135365 -0.04305082559585571
0.007186529226601124 -0.010755522176623344 -0.04305082559585571
0.004950143862515688 -0.011950894258916378 -0.04305082559585571
0.002523524919524789 -0.012686999514698982 -0.04305082559585571
-7.406172386481558e-08 -0.01293555274605751 -0.04305082559585571
-0.0025236739311367273 -0.012686997652053833 -0.04305082559585571
-0.00495029054582119 -0.011950891464948654 -0.04305082559585571
-0.0071866754442453384 -0.010755517520010471 -0.04305082559585571
-0.009146882221102715 -0.009146815165877342 -0.04305082559585571
-0.010755580849945545 -0.007186606992036104 -0.04305082559585571
-0.011950950138270855 -0.004950221162289381 -0.04305082559585571
-0.01268705539405346 -0.002523602219298482 -0.04305082559585571
-0.012935606762766838 -3.0002145212648657e-09 -0.04305082559585571
-0.012687050737440586 0.002523596165701747 -0.04305082559585571
-0.011950942687690258 0.004950213246047497 -0.04305082559585571
-0.010755565948784351 0.007186597678810358 -0.04305082559585571
-0.009146864525973797 0.009146800264716148 -0.04305082559585571
-0.007186654955148697 0.010755498893558979 -0.04305082559585571
-0.0049502672627568245 0.011950868181884289 -0.04305082559585571
-0.0025236490182578564 0.012686971575021744 -0.04305082559585571
-6.905329286155393e-08 0.005317783914506435 -0.04305082559585571
0.001037381705828011 0.0052156043238937855 -0.04305082559585571
0.0020349640399217606 0.00491299107670784 -0.04305082559585571
0.00295434077270329 0.004421573597937822 -0.04305082559585571
0.0037601818330585957 0.0037602377124130726 -0.04305082559585571
0.00442151864990592 0.002954395953565836 -0.04305082559585571
0.004912935197353363 0.002035019686445594 -0.04305082559585571
0.0052155484445393085 0.0010374378180131316 -0.04305082559585571
0.005317728966474533 -1.2724316711398842e-08 -0.04305082559585571
0.0052155484445393085 -0.001037463080137968 -0.04305082559585571
0.00491293566301465 -0.002035045064985752 -0.04305082559585571
0.00442151864990592 -0.0029544229619205 -0.04305082559585571
0.0037601818330585957 -0.003760263090953231 -0.04305082559585571
0.0029543405398726463 -0.004421599674969912 -0.04305082559585571
0.0020349628757685423 -0.004913017153739929 -0.04305082559585571
0.001037380425259471 -0.005215630400925875 -0.04305082559585571
-7.07860579041153e-08 -0.005317810457199812 -0.04305082559585571
-0.001037522335536778 -0.005215629935264587 -0.04305082559585571
-0.00203510420396924 -0.004913016222417355 -0.04305082559585571
-0.0029544816352427006 -0.00442159827798605 -0.04305082559585571
-0.0037603224627673626 -0.0037602612283080816 -0.04305082559585571
-0.004421657882630825 -0.0029544197022914886 -0.04305082559585571
-0.004913074430078268 -0.0020350420381873846 -0.04305082559585571
-0.005215686745941639 -0.0010374593548476696 -0.04305082559585571
-0.005317866336554289 -7.99093324843625e-09 -0.04305082559585571
-0.00521568488329649 0.0010374430567026138 -0.04305082559585571
-0.00491307070478797 0.0020350252743810415 -0.04305082559585571
-0.004421652294695377 0.002954402007162571 -0.04305082559585571
-0.0037603150121867657 0.0037602426018565893 -0.04305082559585571
-0.0029544727876782417 0.004421577788889408 -0.04305082559585571
-0.0020350946579128504 0.004912994336336851 -0.04305082559585571
-0.0010375119745731354 0.00521560525521636 -0.04305082559585571
0.006339728832244873 0.031872306019067764 -0.04183301329612732
0.012435892596840858 0.03002305142581463 -0.04183301329612732
0.01805415190756321 0.027020031586289406 -0.04183301329612732
0.02297859638929367 0.02297864481806755 -0.04183301329612732
0.027019985020160675 0.01805419847369194 -0.04183301329612732
0.0300230011343956 0.012435942888259888 -0.04183301329612732
0.031872257590293884 0.006339780054986477 -0.04183301329612732
0.03249666839838028 -1.9122598615695097e-08 -0.04183301329612732
0.031872257590293884 -0.006339817773550749 -0.04183301329612732
0.030023006722331047 -0.012435981072485447 -0.04183301329612732
0.027019985020160675 -0.01805424503982067 -0.04183301329612732
0.02297859638929367 -0.022978685796260834 -0.04183301329612732
0.01805415004491806 -0.027020078152418137 -0.04183301329612732
0.01243588700890541 -0.030023103579878807 -0.04183301329612732
0.006339721381664276 -0.031872350722551346 -0.04183301329612732
-8.219416969268423e-08 -0.03249676153063774 -0.04183301329612732
-0.006339884828776121 -0.03187234699726105 -0.04183301329612732
-0.012436049990355968 -0.03002309240400791 -0.04183301329612732
-0.018054310232400894 -0.027020065113902092 -0.04183301329612732
-0.022978754714131355 -0.02297867462038994 -0.04183301329612732
-0.027020137757062912 -0.01805422641336918 -0.04183301329612732
-0.030023157596588135 -0.01243596337735653 -0.04183301329612732
-0.031872399151325226 -0.0063397930935025215 -0.04183301329612732
-0.03249681740999222 9.80280123741295e-09 -0.04183301329612732
-0.03187239170074463 0.0063398112542927265 -0.04183301329612732
-0.030023131519556046 0.012435976415872574 -0.04183301329612732
-0.027020106092095375 0.018054232001304626 -0.04183301329612732
-0.022978710010647774 0.02297867275774479 -0.04183301329612732
-0.018054259940981865 0.027020055800676346 -0.04183301329612732
-0.012435993179678917 0.03002307377755642 -0.04183301329612732
-0.006339822895824909 0.03187231346964836 -0.04183301329612732
-7.160537052186555e-08 0.03249672055244446 -0.04183301329612732
0.018273282796144485 0.007569036912173033 0.029603036120533943
0.01939881220459938 0.003858659416437149 0.029603036120533943
-0.01098855771124363 -0.016445524990558624 0.029603036120533943
-0.013985779136419296 -0.013985765166580677 0.029603036120533943
0.016445521265268326 0.010988540016114712 0.029603036120533943
-0.007569052278995514 -0.018273288384079933 0.029603036120533943
-0.0038586368318647146 0.01939881592988968 0.029603036120533943
-1.4834111716766074e-09 0.01977885328233242 0.02960304357111454
0.013985765166580677 0.013985760509967804 0.029603036120533943
-0.0038586738519370556 -0.019398821517825127 0.029603036120533943
-0.0075690168887376785 0.01827329210937023 0.029603036120533943
0.010988546535372734 0.01644551381468773 0.029603036120533943
-7.928182554906016e-09 -0.019778871908783913 0.029603036120533943
-0.010988525114953518 0.016445528715848923 0.029603036120533943
0.0075690425001084805 0.018273279070854187 0.029603036120533943
0.0038586577866226435 -0.019398825243115425 0.029603036120533943
-0.013985751196742058 0.013985778205096722 0.029603036120533943
0.0038586631417274475 0.019398808479309082 0.029603036120533943
0.007569037843495607 -0.01827329583466053 0.029603036120533943
-0.01644551381468773 0.010988561436533928 0.029603036120533943
0.010988544672727585 -0.016445530578494072 0.029603036120533943
-0.018273280933499336 0.007569058332592249 0.029603036120533943
0.013985765166580677 -0.0139857716858387 0.029603036120533943
-0.01939881406724453 0.0038586794398725033 0.029603036120533943
0.016445521265268326 -0.010988551191985607 0.029603036120533943
-0.019778866320848465 1.3808240773016678e-08 0.029603036120533943
0.018273282796144485 -0.007569043897092342 0.029603036120533943
-0.019398821517825127 -0.0038586528971791267 0.029603036120533943
0.01939881406724453 -0.0038586680311709642 0.029603036120533943
-0.01827329583466053 -0.007569032721221447 0.029603036120533943
0.019778860732913017 -3.79694897745253e-09 0.029603036120533943
-0.016445530578494072 -0.010988542810082436 0.029603036120533943
-6.931222884531962e-08 0.02509797178208828 0.02495550736784935
0.004896306432783604 0.02461572177708149 0.02495550364255905
0.009604518301784992 0.02318750135600567 0.02495550364255905
0.013943630270659924 0.020868198946118355 0.02495550364255905
0.01774689182639122 0.01774693839251995 0.02495550364255905
0.020868150517344475 0.01394367590546608 0.02495550364255905
0.02318745292723179 0.009604564867913723 0.02495550364255905
0.02461567148566246 0.004896356724202633 0.02495550364255905
0.0250979233533144 -1.831042695243923e-08 0.02495550364255905
0.02461567148566246 -0.004896393045783043 0.02495550364255905
0.02318745292723179 -0.009604603052139282 0.02495550364255905
0.020868150517344475 -0.013943716883659363 0.02495550364255905
0.01774689182639122 -0.017746983096003532 0.02495550364255905
0.013943629339337349 -0.020868243649601936 0.02495550364255905
0.00960451178252697 -0.0231875441968441 0.02495550364255905
0.004896300379186869 -0.02461576648056507 0.02495550364255905
-7.749020625169578e-08 -0.02509801834821701 0.02495550364255905
-0.004896454978734255 -0.024615759029984474 0.02495550364255905
-0.00960466731339693 -0.023187538608908653 0.02495550364255905
-0.013943778350949287 -0.02086823433637619 0.02495550364255905
-0.017747042700648308 -0.017746973782777786 0.02495550364255905
-0.020868299528956413 -0.013943704776465893 0.02495550364255905
-0.023187600076198578 -0.009604589082300663 0.02495550364255905
-0.02461581490933895 -0.004896374419331551 0.02495550364255905
-0.02509806863963604 4.029321765131044e-09 0.02495550364255905
-0.024615805596113205 0.00489638140425086 0.02495550364255905
-0.023187583312392235 0.009604591876268387 0.02495550364255905
-0.020868273451924324 0.013943701982498169 0.02495550364255905
-0.017747007310390472 0.01774696446955204 0.02495550364255905
-0.013943739235401154 0.020868219435214996 0.02495550364255905
-0.009604621678590775 0.023187516257166862 0.02495550364255905
-0.0048964074812829494 0.024615727365016937 0.02495550364255905
0.018273282796144485 0.007569036912173033 0.03700144588947296
-0.01098855771124363 -0.016445524990558624 0.03700144588947296
0.016445521265268326 0.010988540016114712 0.03700144588947296
-0.007569052278995514 -0.018273288384079933 0.03700144588947296
-0.0038586368318647146 0.01939881592988968 0.03700144588947296
0.013985765166580677 0.013985760509967804 0.03700144588947296
-0.0038586738519370556 -0.019398821517825127 0.03700144588947296
-0.0075690168887376785 0.01827329210937023 0.03700144588947296
0.010988546535372734 0.01644551381468773 0.03700144588947296
-7.928182554906016e-09 -0.019778871908783913 0.03700144588947296
-0.010988525114953518 0.016445528715848923 0.03700144588947296
0.0075690425001084805 0.018273279070854187 0.03700144588947296
0.0038586577866226435 -0.019398825243115425 0.03700144588947296
-0.013985751196742058 0.013985778205096722 0.03700144588947296
0.0038586631417274475 0.019398808479309082 0.03700144588947296
0.007569037843495607 -0.01827329583466053 0.03700144588947296
-0.01644551381468773 0.010988561436533928 0.03700144588947296
0.010988544672727585 -0.016445530578494072 0.03700144588947296
-0.018273280933499336 0.007569058332592249 0.03700144588947296
0.013985765166580677 -0.0139857716858387 0.03700144588947296
-0.01939881406724453 0.0038586794398725033 0.03700144588947296
0.016445521265268326 -0.010988551191985607 0.03700144588947296
-0.019778866320848465 1.3808240773016678e-08 0.03700144588947296
0.018273282796144485 -0.007569043897092342 0.03700144588947296
-0.019398821517825127 -0.0038586528971791267 0.03700144588947296
0.01939881406724453 -0.0038586680311709642 0.03700144588947296
-0.01827329583466053 -0.007569032721221447 0.03700144588947296
0.019778860732913017 -3.79694897745253e-09 0.03700144588947296
-0.016445530578494072 -0.010988542810082436 0.03700144588947296
0.01939881220459938 0.003858659416437149 0.03700144588947296
-0.013985779136419296 -0.013985765166580677 0.03700144588947296
-1.4834111716766074e-09 0.01977885328233242 0.03700144588947296
