0.04674171283841133 0.043626829981803894 0.10564832389354706
0.03980322554707527 0.022878319025039673 -0.1386585235595703
0.05496244132518768 0.03331028297543526 0.10564832389354706
0.04422697424888611 0.014354566112160683 -0.1386585235595703
0.061070993542671204 0.02154022641479969 0.10564832389354706
0.04695110395550728 0.005105755757540464 -0.1386585235595703
0.06483261287212372 0.008768973872065544 0.10564832389354706
0.047870926558971405 -0.004512685351073742 -0.1386585235595703
0.0661027729511261 -0.004512691870331764 0.10564832389354706
0.04695109650492668 -0.014131126925349236 -0.1386585235595703
0.06483260542154312 -0.017794357612729073 0.10564832389354706
0.04422696307301521 -0.023379936814308167 -0.1386585235595703
0.06107098236680031 -0.03056561015546322 0.10564832389354706
0.03980321064591408 -0.03190368786454201 -0.1386585235595703
0.05496242269873619 -0.042335666716098785 0.10564832389354706
0.03384983912110329 -0.03937481343746185 -0.1386585235595703
0.04674169048666954 -0.05265220254659653 0.10564832389354706
0.026595640927553177 -0.045506205409765244 -0.1386585235595703
0.036724697798490524 -0.06111876294016838 0.10564832389354706
0.01831938698887825 -0.05006224289536476 -0.1386585235595703
0.025296395644545555 -0.06740997731685638 0.10564832389354706
0.00933912955224514 -0.0528678297996521 -0.1386585235595703
0.017623843625187874 -0.07128408551216125 0.10363920032978058
-2.8521579764628768e-08 -0.05381515622138977 -0.1386585235595703
-3.9449297162263974e-08 -0.07259220629930496 0.10264873504638672
-0.009339184500277042 -0.05286780744791031 -0.1386585235595703
-0.0176239050924778 -0.07128406316041946 0.10363920032978058
-0.01831943541765213 -0.05006220564246178 -0.1386585235595703
-0.025296470150351524 -0.0674099326133728 0.10564832389354706
-0.026595687493681908 -0.04550616070628166 -0.1386585235595703
-0.0367247648537159 -0.06111869215965271 0.10564832389354706
-0.03384988009929657 -0.03937474638223648 -0.1386585235595703
-0.04674173891544342 -0.05265211686491966 0.10564832389354706
-0.03980323299765587 -0.03190360963344574 -0.1386585235595703
-0.05496245622634888 -0.04233556613326073 0.10564832389354706
-0.04422697052359581 -0.02337985299527645 -0.1386585235595703
-0.061070993542671204 -0.030565494671463966 0.10564832389354706
-0.046951085329055786 -0.014131037518382072 -0.1386585235595703
-0.06483259052038193 -0.017794232815504074 0.10564832389354706
-0.05126534402370453 -0.004512673709541559 -0.11486797779798508
-0.0541834756731987 -0.0045126741752028465 -0.07659650593996048
-0.05747263878583908 -0.004512674640864134 -0.038325026631355286
-0.06040973216295242 -0.004512674640864134 -5.35584258614108e-05
-0.06292836368083954 -0.004512675106525421 0.03821791335940361
-0.06532346457242966 -0.0045126755721867085 0.07543756067752838
-0.06406829506158829 0.00861241016536951 0.07543756067752838
-0.06171921268105507 0.008131175301969051 0.03821791335940361
-0.059248972684144974 0.007625120226293802 -5.35584258614108e-05
-0.05636832118034363 0.00703498674556613 -0.038325026631355286
-0.053142350167036057 0.0063741146586835384 -0.07659650593996048
-0.050280291587114334 0.005787793081253767 -0.11486797779798508
-0.060351017862558365 0.021233107894659042 0.07543756067752838
-0.058138225227594376 0.02028912864625454 0.03821791335940361
-0.055811312049627304 0.019296469166874886 -5.35584258614108e-05
-0.05309779569506645 0.018138879910111427 -0.038325026631355286
-0.0500590056180954 0.01684252917766571 -0.07659650593996048
-0.04736300930380821 0.015692412853240967 -0.11486797779798508
-0.05431447550654411 0.03286440670490265 0.07543756067752838
-0.05232302099466324 0.03149396553635597 0.03821791335940361
-0.050228849053382874 0.030052844434976578 -5.35584258614108e-05
-0.04778674989938736 0.028372284024953842 -0.038325026631355286
-0.04505191370844841 0.02649027854204178 -0.07659650593996048
-0.04262557625770569 0.024820568040013313 -0.11486797779798508
-0.046190667897462845 0.0430593267083168 0.07543756067752838
-0.04449707269668579 0.04131508618593216 0.03821791335940361
-0.0427161268889904 0.03948088735342026 -5.35584258614108e-05
-0.04063928872346878 0.03734194114804268 -0.038325026631355286
-0.038313496857881546 0.03494660183787346 -0.07659650593996048
-0.036250073462724686 0.03282146528363228 -0.11486797779798508
-0.03629176691174507 0.05142609030008316 0.07543756067752838
-0.034961119294166565 0.04937507584691048 0.03821791335940361
-0.03356184437870979 0.04721828177571297 -5.35584258614108e-05
-0.03193008527159691 0.044703152030706406 -0.038325026631355286
-0.030102718621492386 0.041886523365974426 -0.07659650593996048
-0.0284814964979887 0.03938763216137886 -0.11486797779798508
-0.024998195469379425 0.057643141597509384 0.07543756067752838
-0.024081630632281303 0.055364180356264114 0.03821791335940361
-0.02311779372394085 0.052967675030231476 -5.35584258614108e-05
-0.021993815898895264 0.050173014402389526 -0.038325026631355286
-0.020735109224915504 0.047043345868587494 -0.07659650593996048
-0.019618390128016472 0.044266726821660995 -0.11486797779798508
-0.012743963859975338 0.061471596360206604 0.07543756067752838
-0.01227670256048441 0.059052255004644394 0.03821791335940361
-0.01178534235805273 0.0565081425011158 -5.35584258614108e-05
-0.011212345212697983 0.05354134738445282 -0.038325026631355286
-0.010570663027465343 0.05021890625357628 -0.07659650593996048
-0.010001364164054394 0.047271255403757095 -0.11486797779798508
1.170530250504953e-08 0.05467868968844414 -0.038325026631355286
1.1040540925932874e-08 0.05129116401076317 -0.07659650593996048
1.0457327448420983e-08 0.048285771161317825 -0.11486797779798508
0.012743990868330002 0.061471596360206604 0.07543756067752838
0.012276727706193924 0.059052255004644394 0.03821791335940361
0.01178536657243967 0.056508149951696396 -5.35584258614108e-05
0.011212368495762348 0.05354134738445282 -0.038325026631355286
0.010570683516561985 0.050218913704156876 -0.07659650593996048
0.01000138558447361 0.047271255403757095 -0.11486797779798508
0.024998227134346962 0.05764314904808998 0.07543756067752838
0.024081658571958542 0.05536418780684471 0.03821791335940361
0.02311781607568264 0.05296768248081207 -5.35584258614108e-05
0.021993841975927353 0.050173014402389526 -0.038325026631355286
0.020735131576657295 0.04704335331916809 -0.07659650593996048
0.019618410617113113 0.04426673799753189 -0.11486797779798508
0.03629179671406746 0.05142609030008316 0.07543756067752838
0.034961145371198654 0.04937507584691048 0.03821791335940361
0.033561866730451584 0.04721828177571297 -5.35584258614108e-05
0.0319301038980484 0.044703152030706406 -0.038325026631355286
0.030102748423814774 0.041886523365974426 -0.07659650593996048
0.02848152071237564 0.03938763216137886 -0.11486797779798508
0.04619069769978523 0.0430593341588974 0.07543756067752838
0.04449709504842758 0.041315093636512756 0.03821791335940361
0.04271616041660309 0.03948088735342026 -5.35584258614108e-05
0.04063932225108147 0.03734194114804268 -0.038325026631355286
0.03831353038549423 0.03494660183787346 -0.07659650593996048
0.036250095814466476 0.03282146528363228 -0.11486797779798508
0.054314516484737396 0.03286441043019295 0.07543756067752838
0.05232305824756622 0.03149396553635597 0.03821791335940361
0.05022889003157616 0.030052844434976578 -5.35584258614108e-05
0.04778679460287094 0.028372284024953842 -0.038325026631355286
0.045051950961351395 0.02649027481675148 -0.07659650593996048
0.04262561351060867 0.024820569902658463 -0.11486797779798508
0.060351066291332245 0.021233102306723595 0.07543756067752838
0.058138273656368256 0.020289123058319092 0.03821791335940361
0.055811356753110886 0.019296463578939438 -5.35584258614108e-05
0.05309784412384033 0.01813887618482113 -0.038325026631355286
0.05005904659628868 0.016842525452375412 -0.07659650593996048
0.0473630428314209 0.01569240912795067 -0.11486797779798508
0.06406833231449127 0.008612400852143764 0.07543756067752838
0.061719246208667755 0.008131165988743305 0.03821791335940361
0.05924901366233826 0.007625112310051918 -5.35584258614108e-05
0.05636835843324661 0.00703497976064682 -0.038325026631355286
0.05314239114522934 0.006374106276780367 -0.07659650593996048
0.05028033256530762 0.005787783768028021 -0.11486797779798508
0.06532350927591324 -0.004512691870331764 0.07543756067752838
0.06292839348316193 -0.00451269093900919 0.03821791335940361
0.06040976196527481 -0.004512690007686615 -5.35584258614108e-05
0.05747267231345177 -0.004512688610702753 -0.038325026631355286
0.05418350547552109 -0.004512687213718891 -0.07659650593996048
0.05126538127660751 -0.0045126862823963165 -0.11486797779798508
0.06406833231449127 -0.017637785524129868 0.07543756067752838
0.06171923875808716 -0.01715654693543911 0.03821791335940361
0.05924899876117706 -0.01665049046278 -5.35584258614108e-05
0.05636834725737572 -0.0160603579133749 -0.038325026631355286
0.053142379969358444 -0.015399483032524586 -0.07659650593996048
0.05028032884001732 -0.01481315866112709 -0.11486797779798508
0.06035103648900986 -0.030258486047387123 0.07543756067752838
0.058138251304626465 -0.02931450679898262 0.03821791335940361
0.055811330676078796 -0.02832184173166752 -5.35584258614108e-05
0.05309782177209854 -0.02716425620019436 -0.038325026631355286
0.05005902424454689 -0.025867899879813194 -0.07659650593996048
0.047363027930259705 -0.02471778355538845 -0.11486797779798508
0.054314497858285904 -0.04188979044556618 0.07543756067752838
0.052323032170534134 -0.0405193455517292 0.03821791335940361
0.050228867679834366 -0.03907822445034981 -5.35584258614108e-05
0.04778676852583885 -0.037397660315036774 -0.038325026631355286
0.045051928609609604 -0.03551565483212471 -0.07659650593996048
0.042625587433576584 -0.033845942467451096 -0.11486797779798508
0.04619067162275314 -0.05208470672369003 0.07543756067752838
0.04449707642197609 -0.05034046247601509 0.03821791335940361
0.042716134339571 -0.04850625991821289 -5.35584258614108e-05
0.04063929244875908 -0.04636731371283531 -0.038325026631355286
0.03831350430846214 -0.04397197812795639 -0.07659650593996048
0.036250073462724686 -0.041846830397844315 -0.11486797779798508
0.03629177063703537 -0.060451459139585495 0.07543756067752838
0.03496112301945686 -0.05840044468641281 0.03821791335940361
0.03356184437870979 -0.0562436543405056 -5.35584258614108e-05
0.03193008527159691 -0.05372852459549904 -0.038325026631355286
0.030102722346782684 -0.05091189593076706 -0.07659650593996048
0.028481500223279 -0.0484129972755909 -0.11486797779798508
0.024998193606734276 -0.06666851788759232 0.07543756067752838
0.024081625044345856 -0.06438954919576645 0.03821791335940361
0.023117786273360252 -0.06199305132031441 -5.35584258614108e-05
0.021993812173604965 -0.05919839069247246 -0.038325026631355286
0.020735105499625206 -0.056068722158670425 -0.07659650593996048
0.019618386402726173 -0.05329209566116333 -0.11486797779798508
0.017416084185242653 -0.07049694657325745 0.07543756067752838
0.01227668859064579 -0.06807761639356613 0.03821791335940361
0.011785329319536686 -0.06553349643945694 -5.35584258614108e-05
0.011212334036827087 -0.06256670504808426 -0.038325026631355286
0.010570650920271873 -0.059244267642498016 -0.07659650593996048
0.010001352056860924 -0.05629662424325943 -0.11486797779798508
-3.899670275586686e-08 -0.07178964465856552 0.07543756067752838
-3.756930766485311e-08 -0.06932291388511658 0.03821791335940361
-3.6039370598928144e-08 -0.06672895699739456 -5.35584258614108e-05
-3.4276514071507336e-08 -0.06370404362678528 -0.038325026631355286
-3.230973177892338e-08 -0.06031651422381401 -0.07659650593996048
-3.055825459341577e-08 -0.05731112137436867 -0.11486797779798508
-0.01741614378988743 -0.07049692422151566 0.07543756067752838
-0.012276758439838886 -0.06807759404182434 0.03821791335940361
-0.011785396374762058 -0.06553347408771515 -5.35584258614108e-05
-0.011212396435439587 -0.06256668269634247 -0.038325026631355286
-0.0105707086622715 -0.059244245290756226 -0.07659650593996048
-0.010001410730183125 -0.05629659444093704 -0.11486797779798508
-0.024998262524604797 -0.06666845828294754 0.07543756067752838
-0.02408168837428093 -0.06438948959112167 0.03821791335940361
-0.023117847740650177 -0.06199299544095993 -5.35584258614108e-05
-0.02199387550354004 -0.05919833481311798 -0.038325026631355286
-0.020735161378979683 -0.056068673729896545 -0.07659650593996048
-0.019618438556790352 -0.05329205468297005 -0.11486797779798508
-0.036291833966970444 -0.060451388359069824 0.07543756067752838
-0.03496118262410164 -0.05840038135647774 0.03821791335940361
-0.03356190025806427 -0.05624358728528023 -5.35584258614108e-05
-0.03193013742566109 -0.05372845381498337 -0.038325026631355286
-0.030102776363492012 -0.05091184005141258 -0.07659650593996048
-0.02848154492676258 -0.04841294884681702 -0.11486797779798508
-0.046190712600946426 -0.05208462104201317 0.07543756067752838
-0.04449712112545967 -0.050340380519628525 0.03821791335940361
-0.04271617531776428 -0.04850617051124573 -5.35584258614108e-05
-0.04063934087753296 -0.046367231756448746 -0.038325026631355286
-0.038313549011945724 -0.04397189989686012 -0.07659650593996048
-0.03625011816620827 -0.04184676334261894 -0.11486797779798508
-0.05431452393531799 -0.04188968613743782 0.07543756067752838
-0.05232307314872742 -0.040519244968891144 0.03821791335940361
-0.05022890120744705 -0.03907812386751175 -5.35584258614108e-05
-0.04778680205345154 -0.03739757090806961 -0.038325026631355286
-0.04505195468664169 -0.03551556542515755 -0.07659650593996048
-0.04262561723589897 -0.03384586423635483 -0.11486797779798508
-0.06035105139017105 -0.03025836870074272 0.07543756067752838
-0.05813826620578766 -0.029314393177628517 0.03821791335940361
-0.05581134557723999 -0.028321733698248863 -5.35584258614108e-05
-0.05309782549738884 -0.027164148166775703 -0.038325026631355286
-0.05005904287099838 -0.025867804884910583 -0.07659650593996048
-0.0473630465567112 -0.024717696011066437 -0.11486797779798508
-0.06406831741333008 -0.017637664452195168 0.07543756067752838
-0.061719223856925964 -0.017156429588794708 0.03821791335940361
-0.059248991310596466 -0.016650378704071045 -5.35584258614108e-05
-0.05636833608150482 -0.016060249879956245 -0.038325026631355286
-0.05314237251877785 -0.015399380587041378 -0.07659650593996048
-0.050280310213565826 -0.01481306180357933 -0.11486797779798508
-0.03800133988261223 -0.004512672312557697 -0.1386585235595703
-0.037271153181791306 0.003122729016467929 -0.1386585235595703
-0.03510865569114685 0.010464703664183617 -0.1386585235595703
-0.03159695863723755 0.017231104895472527 -0.1386585235595703
-0.026871001347899437 0.023161910474300385 -0.1386585235595703
-0.021112406626343727 0.028029197826981544 -0.1386585235595703
-0.0145424734801054 0.03164591267704964 -0.1386585235595703
-0.007413685787469149 0.033873073756694794 -0.1386585235595703
7.831874704322672e-09 0.0346251018345356 -0.1386585235595703
0.007413701619952917 0.033873073756694794 -0.1386585235595703
0.014542491175234318 0.03164591267704964 -0.1386585235595703
0.02111242525279522 0.028029197826981544 -0.1386585235595703
0.02687101997435093 0.023161914199590683 -0.1386585235595703
0.03159697726368904 0.017231108620762825 -0.1386585235595703
0.03510868176817894 0.010464701801538467 -0.1386585235595703
0.0372711718082428 0.0031227220315486193 -0.1386585235595703
0.03800136223435402 -0.0045126816257834435 -0.1386585235595703
0.0372711718082428 -0.012148085050284863 -0.1386585235595703
0.03510867431759834 -0.019490065053105354 -0.1386585235595703
0.031596969813108444 -0.026256470009684563 -0.1386585235595703
0.026871006935834885 -0.03218727186322212 -0.1386585235595703
0.021112408488988876 -0.037054553627967834 -0.1386585235595703
0.0145424734801054 -0.040671270340681076 -0.1386585235595703
0.00741367693990469 -0.042898427695035934 -0.1386585235595703
-2.257164055663452e-08 -0.043650444597005844 -0.1386585235595703
-0.007413720246404409 -0.04289841279387474 -0.1386585235595703
-0.014542510733008385 -0.04067124053835869 -0.1386585235595703
-0.02111244387924671 -0.03705451637506485 -0.1386585235595703
-0.026871031150221825 -0.032187219709157944 -0.1386585235595703
-0.03159698471426964 -0.026256410405039787 -0.1386585235595703
-0.03510868176817894 -0.019489997997879982 -0.1386585235595703
-0.0372711606323719 -0.012148013338446617 -0.1386585235595703
-0.020833129063248634 -0.004512669984251261 -0.1386585235595703
-0.02043282613158226 -0.0003267833380959928 -0.1386585235595703
-0.019247302785515785 0.0036982411984354258 -0.1386585235595703
-0.017322111874818802 0.007407725788652897 -0.1386585235595703
-0.014731246046721935 0.010659116320312023 -0.1386585235595703
-0.011574264615774155 0.013327467255294323 -0.1386585235595703
-0.00797248911112547 0.015310225076973438 -0.1386585235595703
-0.004064337816089392 0.0165312010794878 -0.1386585235595703
4.732844338661835e-09 0.01694347709417343 -0.1386585235595703
0.004064347594976425 0.0165312010794878 -0.1386585235595703
0.007972500286996365 0.015310225076973438 -0.1386585235595703
0.011574274860322475 0.013327467255294323 -0.1386585235595703
0.014731256291270256 0.010659118182957172 -0.1386585235595703
0.017322130501270294 0.007407727651298046 -0.1386585235595703
0.01924731954932213 0.003698240267112851 -0.1386585235595703
0.020432844758033752 -0.00032678668503649533 -0.1386585235595703
0.020833147689700127 -0.0045126755721867085 -0.1386585235595703
0.020432842895388603 -0.00869856309145689 -0.1386585235595703
0.01924731396138668 -0.012723591178655624 -0.1386585235595703
0.017322123050689697 -0.016433076933026314 -0.1386585235595703
0.014731250703334808 -0.01968446932733059 -0.1386585235595703
0.011574266478419304 -0.02235281467437744 -0.1386585235595703
0.00797248911112547 -0.024335572496056557 -0.1386585235595703
0.004064334090799093 -0.025556549429893494 -0.1386585235595703
-1.1935002319773957e-08 -0.025968819856643677 -0.1386585235595703
-0.004064356442540884 -0.025556540116667747 -0.1386585235595703
-0.007972508668899536 -0.024335557594895363 -0.1386585235595703
-0.01157428603619337 -0.02235279232263565 -0.1386585235595703
-0.014731262810528278 -0.0196844395250082 -0.1386585235595703
-0.017322130501270294 -0.016433045268058777 -0.1386585235595703
-0.01924731209874153 -0.01272355392575264 -0.1386585235595703
-0.02043282985687256 -0.008698524907231331 -0.1386585235595703
-0.06600794941186905 -0.0045126755721867085 0.10120272636413574
-0.06473962217569351 0.008749939501285553 0.10120272636413574
-0.06098339334130287 0.02150288224220276 0.10120272636413574
-0.05488360673189163 0.03325605392456055 0.10120272636413574
-0.04667466878890991 0.043557796627283096 0.10120272636413574
-0.03667204827070236 0.052012234926223755 0.10120272636413574
-0.025260133668780327 0.05829443037509918 0.10120272636413574
-0.01287749968469143 0.06216299161314964 0.10120272636413574
1.341635691431975e-08 0.06346925348043442 0.10120272636413574
0.012877528555691242 0.06216299161314964 0.10120272636413574
0.025260165333747864 0.05829443782567978 0.10120272636413574
0.03667207062244415 0.052012234926223755 0.10120272636413574
0.0466746985912323 0.04355780780315399 0.10120272636413574
0.05488364025950432 0.03325605392456055 0.10120272636413574
0.060983434319496155 0.021502871066331863 0.10120272636413574
0.0647396668791771 0.008749930188059807 0.10120272636413574
0.06600799411535263 -0.004512691870331764 0.10120272636413574
0.0647396594285965 -0.017775312066078186 0.10120272636413574
0.06098342314362526 -0.03052825853228569 0.10120272636413574
0.05488362908363342 -0.042281437665224075 0.10120272636413574
0.04667467251420021 -0.052583180367946625 0.10120272636413574
0.036672044545412064 -0.06103760004043579 0.10120272636413574
0.02526012808084488 -0.06731980293989182 0.10120272636413574
0.017598574981093407 -0.07118836045265198 0.10120272636413574
-0.01759863644838333 -0.07118833810091019 0.10120272636413574
-0.02526019886136055 -0.06731974333524704 0.10120272636413574
-0.03667210415005684 -0.06103752925992012 0.10120272636413574
-0.04667472094297409 -0.05258309841156006 0.10120272636413574
-0.05488365516066551 -0.04228133335709572 0.10120272636413574
-0.060983434319496155 -0.03052813932299614 0.10120272636413574
-0.0647396370768547 -0.017775190994143486 0.10120272636413574
0.010797414928674698 -0.09483158588409424 0.10264873504638672
-2.929766296233538e-08 -0.09456095099449158 0.10264873504638672
-0.010797480121254921 -0.09483156353235245 0.10264873504638672
0.010670128278434277 -0.09163104742765427 0.08196985721588135
-2.894049622170769e-08 -0.09134498238563538 0.08196985721588135
-0.0106701934710145 -0.09163101762533188 0.08196985721588135
0.01078193448483944 -0.09473585337400436 0.0982031375169754
-2.9241027377224782e-08 -0.09446334093809128 0.0982031375169754
-0.010781999677419662 -0.09473583102226257 0.0982031375169754
-0.061883408576250076 -0.004512675106525421 0.10564832389354706
-0.060694340616464615 0.007921219803392887 0.10564832389354706
-0.05717281624674797 0.01987728849053383 0.10564832389354706
-0.051454175263643265 0.030896062031388283 0.10564832389354706
-0.04375818371772766 0.040554095059633255 0.10564832389354706
-0.03438057750463486 0.04848024621605873 0.10564832389354706
-0.023681744933128357 0.05436990410089493 0.10564832389354706
-0.012072843499481678 0.057996731251478195 0.10564832389354706
1.2520004588623124e-08 0.05922136455774307 0.10564832389354706
0.012072870507836342 0.05799673870205879 0.10564832389354706
0.023681769147515297 0.05436990410089493 0.10564832389354706
0.03438059985637665 0.04848024621605873 0.10564832389354706
0.04375820234417915 0.04055410251021385 0.10564832389354706
0.05145421251654625 0.03089606575667858 0.10564832389354706
0.057172857224941254 0.019877281039953232 0.10564832389354706
0.0606943741440773 0.007921211421489716 0.10564832389354706
0.06188344955444336 -0.004512690473347902 0.10564832389354706
0.0606943741440773 -0.016946589574217796 0.10564832389354706
0.05717284232378006 -0.02890266478061676 0.10564832389354706
0.05145419016480446 -0.039921440184116364 0.10564832389354706
0.04375818744301796 -0.049579475075006485 0.10564832389354706
0.03438057377934456 -0.057505618780851364 0.10564832389354706
0.02368173748254776 -0.06339526921510696 0.10564832389354706
0.012072828598320484 -0.06702209264039993 0.10564832389354706
-3.6990712715123664e-08 -0.06824672222137451 0.10564832389354706
-0.01207290031015873 -0.06702207028865814 0.10564832389354706
-0.023681804537773132 -0.06339521706104279 0.10564832389354706
-0.034380633383989334 -0.05750555545091629 0.10564832389354706
-0.04375822842121124 -0.04957939684391022 0.10564832389354706
-0.051454223692417145 -0.0399213470518589 0.10564832389354706
-0.057172857224941254 -0.028902551159262657 0.10564832389354706
-0.060694362968206406 -0.016946477815508842 0.10564832389354706
-0.014748990535736084 -0.004485818091779947 0.10564832389354706
-0.014465642161667347 -0.0015228986740112305 0.10564832389354706
-0.01362648606300354 0.0013261570129543543 0.10564832389354706
-0.012263770215213299 0.003951858263462782 0.10564832389354706
-0.010429862886667252 0.006253310013562441 0.10564832389354706
-0.008195239119231701 0.008142062462866306 0.10564832389354706
-0.005645775701850653 0.009545526467263699 0.10564832389354706
-0.0028794484678655863 0.01040977705270052 0.10564832389354706
-2.562751433288213e-06 0.010701604187488556 0.10564832389354706
0.0028743227012455463 0.010409782640635967 0.10564832389354706
0.005640651565045118 0.009545532055199146 0.10564832389354706
0.008190115913748741 0.008142062462866306 0.10564832389354706
0.010424739681184292 0.006253310013562441 0.10564832389354706
0.012258649803698063 0.0039518591947853565 0.10564832389354706
0.01362136472016573 0.0013261552667245269 0.10564832389354706
0.014460521750152111 -0.0015229018172249198 0.10564832389354706
0.014743873849511147 -0.0044858213514089584 0.10564832389354706
0.014460521750152111 -0.00744874170050025 0.10564832389354706
0.01362136285752058 -0.010297796688973904 0.10564832389354706
0.01225864514708519 -0.01292350236326456 0.10564832389354706
0.01042473316192627 -0.015224953182041645 0.10564832389354706
0.008190109394490719 -0.01711370050907135 0.10564832389354706
0.0056406427174806595 -0.01851716823875904 0.10564832389354706
0.002874312922358513 -0.01938142068684101 0.10564832389354706
-2.5745509901753394e-06 -0.019673239439725876 0.10564832389354706
-0.002879462204873562 -0.019381415098905563 0.10564832389354706
-0.005645790137350559 -0.018517158925533295 0.10564832389354706
-0.00819525308907032 -0.017113687470555305 0.10564832389354706
-0.010429874993860722 -0.015224931761622429 0.10564832389354706
-0.012263779528439045 -0.01292348001152277 0.10564832389354706
-0.013626493513584137 -0.010297771543264389 0.10564832389354706
-0.014465645886957645 -0.007448714226484299 0.10564832389354706
-0.013739138841629028 -0.004485818091779947 0.10564832389354706
-0.013475192710757256 -0.0017258032457903028 0.10564832389354706
-0.012693503871560097 0.0009281461243517697 0.10564832389354706
-0.011424108408391476 0.0033740371000021696 0.10564832389354706
-0.009715788066387177 0.005517881829291582 0.10564832389354706
-0.007634195499122143 0.007277290336787701 0.10564832389354706
-0.005259322468191385 0.00858464278280735 0.10564832389354706
-0.0022742077708244324 0.007262467872351408 0.10564832389354706
2.584490843560161e-09 0.007493159733712673 0.10564832389354706
0.0026773104909807444 0.00938971433788538 0.10564832389354706
0.005254197400063276 0.008584646508097649 0.10564832389354706
0.007629071362316608 0.007277290336787701 0.10564832389354706
0.00971066765487194 0.005517881829291582 0.10564832389354706
0.011418987065553665 0.0033740377984941006 0.10564832389354706
0.012688384391367435 0.0009281443199142814 0.10564832389354706
0.01347007229924202 -0.0017258052248507738 0.10564832389354706
0.013734020292758942 -0.004485820885747671 0.10564832389354706
0.01347007229924202 -0.007245836779475212 0.10564832389354706
0.012688380666077137 -0.009899784810841084 0.10564832389354706
0.011418984271585941 -0.012345679104328156 0.10564832389354706
0.009710660204291344 -0.014489523135125637 0.10564832389354706
0.007629066240042448 -0.016248928382992744 0.10564832389354706
0.005254190415143967 -0.017556287348270416 0.10564832389354706
0.002677300712093711 -0.018361352384090424 0.10564832389354706
-2.573937763372669e-06 -0.018633190542459488 0.10564832389354706
-0.002682449296116829 -0.018361344933509827 0.10564832389354706
-0.005259335041046143 -0.01755627617239952 0.10564832389354706
-0.007634206674993038 -0.01624891348183155 0.10564832389354706
-0.009715800173580647 -0.014489504508674145 0.10564832389354706
-0.011424118652939796 -0.012345659546554089 0.10564832389354706
-0.012693511322140694 -0.009899759665131569 0.10564832389354706
-0.013475197367370129 -0.007245812099426985 0.10564832389354706
-0.013739138841629028 -0.004485818091779947 0.12108736485242844
-0.013475192710757256 -0.0017258032457903028 0.12108736485242844
-0.012693503871560097 0.0009281461243517697 0.12108736485242844
-0.011424108408391476 0.0033740371000021696 0.12108736485242844
-0.009715788066387177 0.005517881829291582 0.12108736485242844
-0.007634195499122143 0.007277290336787701 0.12108736485242844
-0.005259322468191385 0.00858464278280735 0.12108736485242844
-0.0026824367232620716 0.009389711543917656 0.12108736485242844
-2.5629460651543923e-06 0.009661553427577019 0.12108736485242844
0.0026773104909807444 0.00938971433788538 0.12108736485242844
0.005254197400063276 0.008584646508097649 0.12108736485242844
0.007629071362316608 0.007277290336787701 0.12108736485242844
0.00971066765487194 0.005517881829291582 0.12108736485242844
0.011418987065553665 0.0033740377984941006 0.12108736485242844
0.012688384391367435 0.0009281443199142814 0.12108736485242844
0.01347007229924202 -0.0017258052248507738 0.12108736485242844
0.013734020292758942 -0.004485820885747671 0.12108736485242844
0.01347007229924202 -0.007245836779475212 0.12108736485242844
0.012688380666077137 -0.009899784810841084 0.12108736485242844
0.011418984271585941 -0.012345679104328156 0.12108736485242844
0.009710660204291344 -0.014489523135125637 0.12108736485242844
0.007629066240042448 -0.016248928382992744 0.12108736485242844
0.005254190415143967 -0.017556287348270416 0.12108736485242844
0.002677300712093711 -0.018361352384090424 0.12108736485242844
-2.573937763372669e-06 -0.018633190542459488 0.12108736485242844
-0.002682449296116829 -0.018361344933509827 0.12108736485242844
-0.005259335041046143 -0.01755627617239952 0.12108736485242844
-0.007634206674993038 -0.01624891348183155 0.12108736485242844
-0.009715800173580647 -0.014489504508674145 0.12108736485242844
-0.011424118652939796 -0.012345659546554089 0.12108736485242844
-0.012693511322140694 -0.009899759665131569 0.12108736485242844
-0.013475197367370129 -0.007245812099426985 0.12108736485242844
-0.012280206196010113 -0.004485818091779947 0.12108736485242844
-0.012044294737279415 -0.002018938073888421 0.12108736485242844
-0.01134562585502863 0.0003531405236572027 0.12108736485242844
-0.010211051441729069 0.00253925914876163 0.12108736485242844
-0.008684169501066208 0.004455409944057465 0.12108736485242844
-0.006823656614869833 0.006027956027537584 0.12108736485242844
-0.004701012745499611 0.007196458987891674 0.12108736485242844
-0.002397813368588686 0.00791601836681366 0.12108736485242844
-2.5632268716435647e-06 0.008158989250659943 0.12108736485242844
0.0023926864378154278 0.007916022092103958 0.12108736485242844
0.004695887677371502 0.007196460850536823 0.12108736485242844
0.006818531546741724 0.006027956027537584 0.12108736485242844
0.008679045364260674 0.004455410875380039 0.12108736485242844
0.010205927304923534 0.002539259847253561 0.12108736485242844
0.011340505443513393 0.00035313921398483217 0.12108736485242844
0.012039173394441605 -0.0020189404021948576 0.12108736485242844
0.012275087647140026 -0.004485820885747671 0.12108736485242844
0.012039173394441605 -0.006952701136469841 0.12108736485242844
0.011340501718223095 -0.00932478066533804 0.12108736485242844
0.010205925442278385 -0.011510900221765041 0.12108736485242844
0.008679038845002651 -0.013427049852907658 0.12108736485242844
0.006818525027483702 -0.014999594539403915 0.12108736485242844
0.004695880692452192 -0.016168098896741867 0.12108736485242844
0.0023926773574203253 -0.016887661069631577 0.12108736485242844
-2.573052370280493e-06 -0.017130624502897263 0.12108736485242844
-0.002397824777290225 -0.01688765548169613 0.12108736485242844
-0.004701025318354368 -0.01616809330880642 0.12108736485242844
-0.006823667325079441 -0.014999580569565296 0.12108736485242844
-0.00868417788296938 -0.01342703402042389 0.12108736485242844
-0.010211058892309666 -0.011510881595313549 0.12108736485242844
-0.011345633305609226 -0.009324757382273674 0.12108736485242844
-0.012044296599924564 -0.006952677853405476 0.12108736485242844
-0.005899525247514248 -0.004485817160457373 0.12108736485242844
-0.005786216352134943 -0.003300972981378436 0.12108736485242844
-0.005450644064694643 -0.002161662094295025 0.12108736485242844
-0.004905708599835634 -0.0011116678360849619 0.12108736485242844
-0.004172346089035273 -0.0001913391170091927 0.12108736485242844
-0.0032787402160465717 0.0005639565642923117 0.12108736485242844
-0.0022592335008084774 0.0011251892428845167 0.12108736485242844
-0.0011530043557286263 0.0014707944355905056 0.12108736485242844
-2.5642327727837255e-06 0.00158749392721802 0.12108736485242844
0.0011478760279715061 0.0014707966474816203 0.12108736485242844
0.00225410470739007 0.0011251905234530568 0.12108736485242844
0.0032736121211200953 0.0005639565642923117 0.12108736485242844
0.00416721822693944 -0.00019133822934236377 0.12108736485242844
0.004900581669062376 -0.0011116672540083528 0.12108736485242844
0.005445519462227821 -0.002161662792786956 0.12108736485242844
0.005781090352684259 -0.0033009739127010107 0.12108736485242844
0.005894400645047426 -0.004485818557441235 0.12108736485242844
0.005781090352684259 -0.005670662969350815 0.12108736485242844
0.005445517599582672 -0.006809973623603582 0.12108736485242844
0.004900580272078514 -0.007859968580305576 0.12108736485242844
0.004167215898633003 -0.008780296891927719 0.12108736485242844
0.003273609559983015 -0.0095355911180377 0.12108736485242844
0.002254101913422346 -0.010096825659275055 0.12108736485242844
0.0011478716041892767 -0.010442429222166538 0.12108736485242844
-2.5689491849334445e-06 -0.010559126734733582 0.12108736485242844
-0.001153009943664074 -0.010442427359521389 0.12108736485242844
-0.0022592388559132814 -0.010096819140017033 0.12108736485242844
-0.0032787455711513758 -0.009535584598779678 0.12108736485242844
-0.004172350279986858 -0.008780289441347122 0.12108736485242844
-0.004905712325125933 -0.007859960198402405 0.12108736485242844
-0.005450648721307516 -0.006809963844716549 0.12108736485242844
-0.005786218214780092 -0.005670651327818632 0.12108736485242844
-0.0548258051276207 -0.004512673709541559 -0.018084950745105743
-0.05377234145998955 0.006503175478428602 -0.018084950745105743
-0.05065244063735008 0.017095692455768585 -0.018084950745105743
-0.0455859936773777 0.026857810094952583 -0.018084950745105743
-0.03876769542694092 0.03541438281536102 -0.018084950745105743
-0.030459579080343246 0.04243657737970352 -0.018084950745105743
-0.020980916917324066 0.04765453189611435 -0.018084950745105743
-0.010695974342525005 0.05086773633956909 -0.018084950745105743
1.1130654620217229e-08 0.051952704787254333 -0.018084950745105743
0.01069599762558937 0.05086773633956909 -0.018084950745105743
0.020980939269065857 0.04765453562140465 -0.018084950745105743
0.030459605157375336 0.04243657737970352 -0.018084950745105743
0.038767728954553604 0.03541438281536102 -0.018084950745105743
0.04558602347970009 0.026857808232307434 -0.018084950745105743
0.05065247416496277 0.01709568500518799 -0.018084950745105743
0.05377237871289253 0.006503167096525431 -0.018084950745105743
0.05482584238052368 -0.004512687213718891 -0.018084950745105743
0.053772371262311935 -0.0155285419896245 -0.018084950745105743
0.05065246298909187 -0.02612106129527092 -0.018084950745105743
0.045586004853248596 -0.03588317707180977 -0.018084950745105743
0.038767702877521515 -0.04443974792957306 -0.018084950745105743
0.030459575355052948 -0.05146194249391556 -0.018084950745105743
0.02098091132938862 -0.056679897010326385 -0.018084950745105743
0.01069596130400896 -0.05989309772849083 -0.018084950745105743
-3.2733520782812775e-08 -0.06097805127501488 -0.018084950745105743
-0.01069602370262146 -0.05989307537674904 -0.018084950745105743
-0.020980970934033394 -0.0566798560321331 -0.018084950745105743
-0.030459636822342873 -0.051461879163980484 -0.018084950745105743
-0.0387677438557148 -0.04443968087434769 -0.018084950745105743
-0.045586030930280685 -0.0358830951154232 -0.018084950745105743
-0.05065247789025307 -0.02612096257507801 -0.018084950745105743
-0.05377236008644104 -0.015528439544141293 -0.018084950745105743
-0.047687917947769165 -0.004512672778218985 -0.1065661683678627
-0.04677160456776619 0.005068997386842966 -0.1065661683678627
-0.04405789077281952 0.014282450079917908 -0.1065661683678627
-0.0396510511636734 0.022773614153265953 -0.1065661683678627
-0.03372044116258621 0.030216187238693237 -0.1065661683678627
-0.026493975892663002 0.036324143409729004 -0.1065661683678627
-0.01824936456978321 0.04086276888847351 -0.1065661683678627
-0.009303441271185875 0.043657638132572174 -0.1065661683678627
9.576798021271316e-09 0.04460134729743004 -0.1065661683678627
0.009303460828959942 0.043657638132572174 -0.1065661683678627
0.018249383196234703 0.04086277261376381 -0.1065661683678627
0.026493998244404793 0.036324143409729004 -0.1065661683678627
0.0337204672396183 0.030216187238693237 -0.1065661683678627
0.03965107351541519 0.022773616015911102 -0.1065661683678627
0.04405791312456131 0.01428244449198246 -0.1065661683678627
0.04677162691950798 0.005068991798907518 -0.1065661683678627
0.047687944024801254 -0.004512684885412455 -0.1065661683678627
0.04677162691950798 -0.014094358310103416 -0.1065661683678627
0.044057901948690414 -0.023307813331484795 -0.1065661683678627
0.0396510548889637 -0.03179898113012314 -0.1065661683678627
0.03372044488787651 -0.039241548627614975 -0.1065661683678627
0.02649397775530815 -0.04534950852394104 -0.1065661683678627
0.018249358981847763 -0.04988812655210495 -0.1065661683678627
0.009303429163992405 -0.052682992070913315 -0.1065661683678627
-2.8576600641372352e-08 -0.05362669751048088 -0.1065661683678627
-0.009303483180701733 -0.05268297344446182 -0.1065661683678627
-0.018249407410621643 -0.049888089299201965 -0.1065661683678627
-0.026494024321436882 -0.04534946009516716 -0.1065661683678627
-0.033720485866069794 -0.0392414890229702 -0.1065661683678627
-0.039651088416576385 -0.03179891034960747 -0.1065661683678627
-0.04405791684985161 -0.02330772951245308 -0.1065661683678627
-0.046771612018346786 -0.014094271697103977 -0.1065661683678627
-0.0445244237780571 -0.00451267184689641 -0.10838325321674347
-0.043668899685144424 0.004433370660990477 -0.10838325321674347
-0.04113520309329033 0.013035624288022518 -0.10838325321674347
-0.03702069818973541 0.020963504910469055 -0.10838325321674347
-0.03148351609706879 0.027912350371479988 -0.10838325321674347
-0.024736445397138596 0.033615123480558395 -0.10838325321674347
-0.01703876070678234 0.037852659821510315 -0.10838325321674347
-0.008686290122568607 0.040462128818035126 -0.10838325321674347
-1.0114545645478756e-08 0.04134323447942734 -0.10838325321674347
0.008686271496117115 0.040462128818035126 -0.10838325321674347
0.0170387402176857 0.037852659821510315 -0.10838325321674347
0.024736426770687103 0.033615123480558395 -0.10838325321674347
0.03148350864648819 0.027912352234125137 -0.10838325321674347
0.037020690739154816 0.020963504910469055 -0.10838325321674347
0.041135188192129135 0.013035616837441921 -0.10838325321674347
0.043668877333402634 0.004433365538716316 -0.10838325321674347
0.044524405151605606 -0.00451268395408988 -0.10838325321674347
0.043668877333402634 -0.013458727858960629 -0.10838325321674347
0.04113518074154854 -0.02206098847091198 -0.10838325321674347
0.03702067583799362 -0.029988868162035942 -0.10838325321674347
0.031483493745326996 -0.03693770989775658 -0.10838325321674347
0.02473640814423561 -0.04264048486948013 -0.10838325321674347
0.01703871414065361 -0.046878013759851456 -0.10838325321674347
0.008686241693794727 -0.04948747903108597 -0.10838325321674347
-4.573694667442396e-08 -0.05036858096718788 -0.10838325321674347
-0.008686330169439316 -0.049487460404634476 -0.10838325321674347
-0.017038803547620773 -0.046877987682819366 -0.10838325321674347
-0.024736488237977028 -0.042640428990125656 -0.10838325321674347
-0.03148354962468147 -0.0369376577436924 -0.10838325321674347
-0.0370207354426384 -0.02998879738152027 -0.10838325321674347
-0.04113523289561272 -0.022060904651880264 -0.10838325321674347
-0.04366891086101532 -0.013458647765219212 -0.10838325321674347
-0.020469417795538902 -0.004512669052928686 -0.11025233566761017
-0.020076105371117592 -0.0003998606407549232 -0.11025233566761017
-0.018911277875304222 0.0035548938903957605 -0.11025233566761017
-0.01701970025897026 0.00719961803406477 -0.11025233566761017
-0.01447406318038702 0.010394245386123657 -0.11025233566761017
-0.011372198350727558 0.013016007840633392 -0.11025233566761017
-0.00783330388367176 0.014964149333536625 -0.11025233566761017
-0.003993382677435875 0.016163809224963188 -0.11025233566761017
3.328472830688156e-09 0.01656888797879219 -0.11025233566761017
0.0039933896623551846 0.016163809224963188 -0.11025233566761017
0.007833311334252357 0.014964154921472073 -0.11025233566761017
0.01137220673263073 0.013016007840633392 -0.11025233566761017
0.014474074356257915 0.010394247248768806 -0.11025233566761017
0.017019709572196007 0.00719961803406477 -0.11025233566761017
0.018911287188529968 0.003554890863597393 -0.11025233566761017
0.020076116546988487 -0.000399863492930308 -0.11025233566761017
0.020469432696700096 -0.004512673709541559 -0.11025233566761017
0.020076116546988487 -0.008625483140349388 -0.11025233566761017
0.01891128532588482 -0.01258024014532566 -0.11025233566761017
0.01701970212161541 -0.01622496359050274 -0.11025233566761017
0.014474065974354744 -0.019419588148593903 -0.11025233566761017
0.011372196488082409 -0.022041352465748787 -0.11025233566761017
0.007833300158381462 -0.023989494889974594 -0.11025233566761017
0.003993375692516565 -0.025189155712723732 -0.11025233566761017
-1.3048381042324309e-08 -0.025594228878617287 -0.11025233566761017
-0.003993400372564793 -0.025189146399497986 -0.11025233566761017
-0.007833322510123253 -0.02398948185145855 -0.11025233566761017
-0.01137221697717905 -0.022041328251361847 -0.11025233566761017
-0.01447407715022564 -0.019419563934206963 -0.11025233566761017
-0.017019715160131454 -0.016224930062890053 -0.11025233566761017
-0.018911289051175117 -0.01258020382374525 -0.11025233566761017
-0.02007610909640789 -0.008625445887446404 -0.11025233566761017
-0.007652143947780132 -0.004512667190283537 -0.11025233566761017
-0.007505109533667564 -0.002975163981318474 -0.11025233566761017
-0.007069658953696489 -0.0014967462047934532 -0.11025233566761017
-0.006362524349242449 -0.0001342286414001137 -0.11025233566761017
-0.005410882644355297 0.0010600289097055793 -0.11025233566761017
-0.0042513031512498856 0.0020401296205818653 -0.11025233566761017
-0.0029283480253070593 0.0027684099040925503 -0.11025233566761017
-0.00149285898078233 0.0032168831676244736 -0.11025233566761017
3.432557571514394e-10 0.0033683134242892265 -0.11025233566761017
0.0014928594464436173 0.0032168831676244736 -0.11025233566761017
0.0029283487237989902 0.0027684110682457685 -0.11025233566761017
0.00425130408257246 0.0020401296205818653 -0.11025233566761017
0.005410885438323021 0.0010600289097055793 -0.11025233566761017
0.00636252760887146 -0.00013422769552562386 -0.11025233566761017
0.007069661747664213 -0.0014967472525313497 -0.11025233566761017
0.0075051127932965755 -0.0029751649126410484 -0.11025233566761017
0.007652148138731718 -0.004512669052928686 -0.11025233566761017
0.0075051127932965755 -0.0060501727275550365 -0.11025233566761017
0.0070696608163416386 -0.0075285909697413445 -0.11025233566761017
0.006362524349242449 -0.008891108445823193 -0.11025233566761017
0.00541088217869401 -0.010085362941026688 -0.11025233566761017
0.004251301288604736 -0.011065464466810226 -0.11025233566761017
0.002928344067186117 -0.011793745681643486 -0.11025233566761017
0.0014928544405847788 -0.012242219410836697 -0.11025233566761017
-5.778950651347259e-09 -0.0123936478048563 -0.11025233566761017
-0.0014928658492863178 -0.012242214754223824 -0.11025233566761017
-0.002928355475887656 -0.011793741025030613 -0.11025233566761017
-0.004251310136169195 -0.01106545701622963 -0.11025233566761017
-0.00541088730096817 -0.01008535549044609 -0.11025233566761017
-0.006362530868500471 -0.008891096338629723 -0.11025233566761017
-0.00706966407597065 -0.007528576999902725 -0.11025233566761017
-0.007505110464990139 -0.006050158757716417 -0.11025233566761017
-0.06457535922527313 0.008716290816664696 0.09489848464727402
-0.060828663408756256 0.021436871960759163 0.09489848464727402
-0.05474435165524483 0.03316022455692291 0.09489848464727402
-0.04655624181032181 0.04343583062291145 0.09489848464727402
-0.03657899796962738 0.05186881870031357 0.09489848464727402
-0.025196045637130737 0.058135077357292175 0.09489848464727402
-0.01284482516348362 0.06199382245540619 0.09489848464727402
1.3379634289378828e-08 0.06329676508903503 0.09489848464727402
0.012844854034483433 0.06199382245540619 0.09489848464727402
0.025196075439453125 0.058135081082582474 0.09489848464727402
0.03657902777194977 0.05186881870031357 0.09489848464727402
0.046556271612644196 0.04343583807349205 0.09489848464727402
0.05474438890814781 0.03316022828221321 0.09489848464727402
0.06082870811223984 0.021436866372823715 0.09489848464727402
0.06457541137933731 0.008716277778148651 0.09489848464727402
0.06584051251411438 -0.004512691870331764 0.09489848464727402
0.06457540392875671 -0.01774166338145733 0.09489848464727402
0.06082868576049805 -0.030462246388196945 0.09489848464727402
0.05474436655640602 -0.04218560829758644 0.09489848464727402
0.046556245535612106 -0.05246121436357498 0.09489848464727402
0.03657899796962738 -0.0608941912651062 0.09489848464727402
0.02519603818655014 -0.06716044247150421 0.09489848464727402
0.017553923651576042 -0.07101918011903763 0.09489848464727402
-0.017553985118865967 -0.07101916521787643 0.09489848464727402
-0.02519611082971096 -0.06716039776802063 0.09489848464727402
-0.036579057574272156 -0.06089412048459053 0.09489848464727402
-0.046556293964385986 -0.05246112868189812 0.09489848464727402
-0.054744403809309006 -0.04218550771474838 0.09489848464727402
-0.06082870066165924 -0.030462130904197693 0.09489848464727402
-0.06457538157701492 -0.01774154044687748 0.09489848464727402
-0.0658404678106308 -0.0045126755721867085 0.09489848464727402
0.010754577815532684 -0.09397616237401962 0.09423115849494934
-2.916749330950097e-08 -0.0937003418803215 0.09423115849494934
-0.010754642076790333 -0.09397614747285843 0.09423115849494934
-0.008909213356673717 0.11304016411304474 0.08461813628673553
-0.008582552894949913 0.11757142096757889 0.03863375633955002
-0.008239046670496464 0.1067400798201561 -0.008650146424770355
-0.00783846527338028 0.07370485365390778 -0.03194249048829079
2.441069746339508e-08 0.11433286964893341 0.08461813628673553
2.3856554065559976e-08 0.11881672590970993 0.03863375633955002
2.37706458960929e-08 0.10793554037809372 -0.008650146424770355
2.5326418295890107e-08 0.0748421922326088 -0.03194249048829079
0.008909262716770172 0.11304017901420593 0.08461813628673553
0.008582602255046368 0.11757143586874008 0.03863375633955002
0.00823909416794777 0.1067400872707367 -0.008650146424770355
0.007838517427444458 0.07370485365390778 -0.03194249048829079
-0.00897972472012043 0.0831870287656784 0.09969160705804825
2.490245876174413e-08 0.08448995649814606 0.09969160705804825
0.008979775942862034 0.0831870287656784 0.09969160705804825
-0.008733440190553665 0.060674507170915604 0.0618915855884552
-0.008413226343691349 0.05901653319597244 0.0363849475979805
-0.008076495490968227 0.057273052632808685 0.010157492011785507
-0.007683821488171816 0.06304477900266647 -0.014416438527405262
0.008733466267585754 0.060674507170915604 0.0618915855884552
0.008413251489400864 0.05901653319597244 0.0363849475979805
0.008076521568000317 0.057273052632808685 0.010157492011785507
0.007683845702558756 0.06304478645324707 -0.014416438527405262
-0.008802560158073902 0.06103238835930824 0.07818867266178131
0.00880258809775114 0.06103238835930824 0.07818867266178131
-0.006105478852987289 0.10037686675786972 0.0773286372423172
-0.005881621036678553 0.10278759151697159 0.040379852056503296
-0.005646213423460722 0.09536486864089966 0.007976175285875797
-0.005371696315705776 0.07286292314529419 -0.01216629147529602
0.006105530541390181 0.10037689656019211 0.0773286372423172
0.005881668068468571 0.10278759151697159 0.040379852056503296
0.005646263249218464 0.09536486864089966 0.007976175285875797
0.005371747072786093 0.07286292314529419 -0.01216629147529602
-0.006153800059109926 0.0776640996336937 0.08980423957109451
0.006153853144496679 0.0776640996336937 0.08980423957109451
-0.05811196565628052 -0.004512674640864134 -0.02999430149793625
-0.056995365768671036 0.007163444068282843 -0.029994303360581398
-0.053688451647758484 0.01839085854589939 -0.029994303360581398
-0.04831833392381668 0.028738098219037056 -0.029994303360581398
-0.04109135642647743 0.037807539105415344 -0.029994303360581398
-0.03228527680039406 0.045250631868839264 -0.029994303360581398
-0.02223847806453705 0.05078133940696716 -0.029994303360581398
-0.01133707258850336 0.05418714880943298 -0.029994303360581398
0.011337095871567726 0.05418714880943298 -0.029994303360581398
0.02223850041627884 0.05078134685754776 -0.029994303360581398
