0.0377664752304554 -0.0021816727239638567 0.00247221440076828
0.037666261196136475 -0.004231621511280537 0.003801601007580757
-0.003577193943783641 0.011241628788411617 -0.0015304428525269032
0.0019191727042198181 0.01682482287287712 0.0040137586183846
0.0006660142680630088 0.01433257944881916 0.0003919163136743009
-0.0005521594430319965 0.011193564161658287 -0.001986530376598239
-0.0017856042832136154 0.007710611913353205 -0.003704381175339222
-0.0029868902638554573 0.003914947155863047 -0.004695618059486151
0.0062708621844649315 0.0167371928691864 0.0033462797291576862
0.004368184134364128 0.014226620085537434 -0.00016625667922198772
0.0023566109593957663 0.01062793005257845 -0.002425083890557289
0.0002179979346692562 0.007307517807930708 -0.004006465896964073
-0.0019654668867588043 0.0037026170175522566 -0.00484961923211813
0.012266877107322216 0.014517736621201038 0.002445307094603777
0.008881543762981892 0.01285264641046524 -0.0008392328163608909
0.005037355702370405 0.010054736398160458 -0.002829261589795351
0.002064524916931987 0.006598782725632191 -0.004284868016839027
-0.001024105353280902 0.003341126488521695 -0.004991552792489529
0.01578211784362793 0.012498218566179276 0.0019061258062720299
0.012756166979670525 0.010531247593462467 -0.001417385647073388
0.008951719850301743 0.008576660417020321 -0.0034087668173015118
0.0036830257158726454 0.005886512342840433 -0.004528887569904327
-0.00019901368068531156 0.0028459043242037296 -0.005115945357829332
0.020490841940045357 0.008742003701627254 0.0012010768987238407
0.01521048042923212 0.008319823071360588 -0.0017874266486614943
0.01130085438489914 0.006446970161050558 -0.0037600870709866285
0.005011287052184343 0.004627170041203499 -0.004729154519736767
0.0004781294846907258 0.002237532287836075 -0.005218039732426405
0.02280639111995697 0.004825661890208721 0.001276460476219654
0.01885799877345562 0.0054308087565004826 -0.0023249322548508644
0.012733737006783485 0.0044572846964001656 -0.003976120613515377
0.005998280830681324 0.0031910582911223173 -0.004877964034676552
0.000981300720013678 0.001541357603855431 -0.005293902475386858
0.023868968710303307 0.00249013165012002 0.000468498095870018
0.019981035962700844 0.0020677901338785887 -0.0024942499585449696
0.013616112060844898 0.002286663046106696 -0.004109152592718601
0.006606062408536673 0.0016305518802255392 -0.004969595931470394
0.0012911392841488123 0.0007866244413889945 -0.005340615753084421
0.024227801710367203 3.2791317607916426e-06 0.0001956508494913578
0.02036023698747158 3.2791804187581874e-06 -0.0025514266453683376
0.013914035633206367 3.2778821150714066e-06 -0.004154073540121317
0.006811289582401514 3.278408712503733e-06 -0.005000540055334568
0.0013957630144432187 3.278449185017962e-06 -0.005356393754482269
0.023868966847658157 -0.002483570948243141 0.00046849483624100685
0.019981035962700844 -0.0020612298976629972 -0.0024942499585449696
0.013616112060844898 -0.0022801074665039778 -0.004109152592718601
0.006606062408536673 -0.0016239967662841082 -0.004969595931470394
0.0012911392841488123 -0.0007800677558407187 -0.005340615753084421
0.02280639298260212 -0.00481909466907382 0.0012764553539454937
0.01885799877345562 -0.005424241069704294 -0.0023249322548508644
0.012733737006783485 -0.004450725857168436 -0.003976120613515377
0.005998280830681324 -0.003184499219059944 -0.004877964034676552
0.000981300720013678 -0.0015348021406680346 -0.005293902475386858
0.020490815863013268 -0.00873546488583088 0.0012010843493044376
0.01521048042923212 -0.00831326562911272 -0.0017874266486614943
0.01130085438489914 -0.00644041458144784 -0.0037600870709866285
0.005011287052184343 -0.004620611201971769 -0.004729154519736767
0.00047812971752136946 -0.0022309739142656326 -0.005218039732426405
0.01578211784362793 -0.012491666711866856 0.0019061258062720299
0.012756166979670525 -0.01052467618137598 -0.001417385647073388
0.008951719850301743 -0.008570104837417603 -0.0034087668173015118
0.0036830257158726454 -0.005879946984350681 -0.004528887569904327
-0.0001990134478546679 -0.002839345019310713 -0.005115945357829332
0.012266877107322216 -0.014511184766888618 0.002445307094603777
0.008881526999175549 -0.012846091762185097 -0.0008392301388084888
0.00503735663369298 -0.010048165917396545 -0.002829261589795351
0.002064525382593274 -0.006592216901481152 -0.004284868016839027
-0.00102410523686558 -0.0033345669507980347 -0.004991552792489529
-0.004109875299036503 3.2781524623715086e-06 -0.004922192078083754
0.006270863115787506 -0.01673061214387417 0.0033462794963270426
0.004368180874735117 -0.014220034703612328 -0.0001662561553530395
0.0023566114250570536 -0.010621372610330582 -0.002425083890557289
0.0002180021838285029 -0.007300951052457094 -0.0040064663626253605
-0.0019654668867588043 -0.0036960586439818144 -0.00484961923211813
0.0019191806204617023 -0.016818245872855186 0.004013757221400738
0.0006660118233412504 -0.014326023869216442 0.00039191675023175776
-0.0005521756247617304 -0.011187011376023293 -0.0019865278154611588
-0.0017856038175523281 -0.00770404702052474 -0.003704381175339222
-0.00298688979819417 -0.0039083887822926044 -0.004695618059486151
-0.0026064268313348293 -0.01674019545316696 0.004707916174083948
-0.003184108529239893 -0.014366607181727886 0.0009724025148898363
-0.003577193710952997 -0.011235076934099197 -0.0015304428525269032
-0.0038692723028361797 -0.007776475511491299 -0.0033902283757925034
-0.00404912605881691 -0.003962623421102762 -0.004535462707281113
-0.007614931557327509 -0.016076525673270226 0.005471587181091309
-0.00734682846814394 -0.01403583399951458 0.0015978885348886251
-0.006703102495521307 -0.011080690659582615 -0.0010598406661301851
-0.005808929447084665 -0.007506346795707941 -0.0030967998318374157
-0.005111384205520153 -0.0038577320519834757 -0.0043753087520599365
-0.013128701597452164 -0.014225529506802559 0.006306353956460953
-0.012037244625389576 -0.012447463348507881 0.0022983290255069733
-0.010388355702161789 -0.009711249731481075 -0.0005095032975077629
-0.008347359485924244 -0.007136680651456118 -0.0027177254669368267
-0.005992702208459377 -0.003599928691983223 -0.004241475835442543
-0.018210185691714287 -0.012177583761513233 0.007075674831867218
-0.016359975561499596 -0.010747701860964298 0.002943863160908222
-0.013784707523882389 -0.008724598214030266 -2.310611307621002e-06
-0.010686801746487617 -0.006052524782717228 -0.0023683710023760796
-0.007185341790318489 -0.0033241675700992346 -0.004063374828547239
-0.022664159536361694 -0.01017757598310709 0.007749992422759533
-0.0201488696038723 -0.008625704795122147 0.0035096746869385242
-0.016761619597673416 -0.007158962078392506 0.00044224364683032036
-0.012737330049276352 -0.005208456423133612 -0.00206214701756835
-0.008230695500969887 -0.0027760928496718407 -0.003907268866896629
-0.026319442316889763 -0.007816672325134277 0.008303388953208923
-0.023258322849869728 -0.006795127410441637 0.003974020015448332
-0.019204730167984962 -0.005471688695251942 0.0008070862386375666
-0.01442016288638115 -0.004021774511784315 -0.0018108449876308441
-0.009088588878512383 -0.002155992202460766 -0.003779150079935789
-0.029035571962594986 -0.004944666288793087 0.008714601397514343
-0.025568891316652298 -0.004565723240375519 0.004319067113101482
-0.021020086482167244 -0.0036700500641018152 0.0010781793389469385
-0.01567062921822071 -0.002699134638532996 -0.0016241059638559818
-0.00972607173025608 -0.0014773686416447163 -0.0036839579697698355
-0.030297815799713135 -0.001941223512403667 0.008908757008612156
-0.026991698890924454 -0.002335331169888377 0.004531543701887131
-0.022137997671961784 -0.0018700356595218182 0.0012451235670596361
-0.01644064299762249 -0.0013641142286360264 -0.001509120687842369
-0.010118632577359676 -0.0007486366666853428 -0.003625336103141308
-0.03058900125324726 3.280676992289955e-06 0.008954877965152264
-0.027472125366330147 3.2802945497678593e-06 0.00460328534245491
-0.02251545712351799 3.2793266200314974e-06 0.0013014883734285831
-0.016700658947229385 3.2794234812172363e-06 -0.001470290357246995
-0.0102511802688241 3.2781917980173603e-06 -0.0036055375821888447
-0.030297815799713135 0.0019477859605103731 0.008908757008612156
-0.026991698890924454 0.002341889077797532 0.004531543701887131
-0.022137997671961784 0.0018765941495075822 0.0012451235670596361
-0.01644064299762249 0.0013706724857911468 -0.001509120687842369
-0.010118632577359676 0.0007551935268566012 -0.003625336103141308
-0.029035571962594986 0.004951232112944126 0.008714601397514343
-0.025568891316652298 0.004572289530187845 0.004319067113101482
-0.021020086482167244 0.0036766070406883955 0.0010781793389469385
-0.01567062921822071 0.0027056941762566566 -0.0016241059638559818
-0.00972607173025608 0.0014839268987998366 -0.0036839579697698355
-0.026319442316889763 0.007823238149285316 0.008303388953208923
-0.023258322849869728 0.0068016937002539635 0.003974020015448332
-0.019204730167984962 0.005478243809193373 0.0008070862386375666
-0.01442016288638115 0.004028326366096735 -0.0018108449876308441
-0.009088588878512383 0.0021625470835715532 -0.003779150079935789
-0.022664159536361694 0.01018415205180645 0.007749992422759533
-0.0201488696038723 0.008632262237370014 0.0035096746869385242
-0.016761619597673416 0.007165528833866119 0.00044224364683032036
-0.012737330049276352 0.005215020850300789 -0.00206214701756835
-0.008230695500969887 0.0027826514560729265 -0.003907268866896629
-0.018210172653198242 0.012184137478470802 0.00707566924393177
-0.016359975561499596 0.010754277929663658 0.002943863160908222
-0.013784707523882389 0.008731166832149029 -2.310611307621002e-06
-0.010686801746487617 0.006059076637029648 -0.0023683710023760796
-0.007185341790318489 0.0033307266421616077 -0.004063374828547239
-0.013128675520420074 0.014232085086405277 0.006306350231170654
-0.012037244625389576 0.012454016134142876 0.0022983290255069733
-0.010388347320258617 0.009717807173728943 -0.0005095042288303375
-0.008347359485924244 0.007143233437091112 -0.0027177254669368267
-0.005992702208459377 0.0036064807791262865 -0.004241475835442543
-0.00761491060256958 0.01608308218419552 0.005471584387123585
-0.007346809841692448 0.014042392373085022 0.0015978857409209013
-0.006703102961182594 0.011087240651249886 -0.001059840782545507
-0.005808915011584759 0.007512899115681648 -0.0030968021601438522
-0.00511138467118144 0.0038642832078039646 -0.0043753087520599365
-0.002606418915092945 0.016746750101447105 0.004707914777100086
-0.003184109227731824 0.01437315996736288 0.0009724026313051581
-0.0038692723028361797 0.007783032022416592 -0.0033902283757925034
-0.00404912605881691 0.003969176206737757 -0.004535462707281113
0.032729122787714005 -0.003980667795985937 0.004135536961257458
0.03295179083943367 -0.002052259398624301 0.0028206449933350086
0.033026985824108124 1.098572965929634e-06 0.002376608084887266
0.032951802015304565 0.0020544573199003935 0.0028206496499478817
0.0327291339635849 0.003982872702181339 0.0041355472058057785
0.037800319492816925 1.098547613764822e-06 0.0020232824608683586
0.037766486406326294 0.0021838725078850985 0.0024722162634134293
0.03766626864671707 0.004233825486153364 0.0038016093894839287
0.13792836666107178 -0.002152283675968647 -0.005245663225650787
0.13805274665355682 -0.004174632020294666 -0.003918470814824104
0.13788634538650513 1.1002308610841283e-06 -0.005693849176168442
0.13792836666107178 0.002154486021026969 -0.00524565763771534
0.13805276155471802 0.004176840651780367 -0.003918461501598358
0.052672360092401505 0.002488040830940008 0.0010185372084379196
0.06705591082572937 0.0035760286264121532 1.4681369066238403e-05
0.08143947273492813 0.003836514661088586 -0.0009891781955957413
0.0929589793086052 0.0032672055531293154 -0.0013857334852218628
0.10524223744869232 0.0021213770378381014 -0.0019442364573478699
0.12459012120962143 0.0027639653999358416 -0.004000747576355934
0.12456877529621124 1.0989967904606601e-06 -0.004449814558029175
0.11420468986034393 0.00016087756375782192 -0.0031120646744966507
0.04672477766871452 -7.010756235104054e-05 0.0014949636533856392
0.052598267793655396 0.005151122808456421 0.0023479927331209183
0.06700928509235382 0.006543090101331472 0.0013441992923617363
0.08142028748989105 0.007438550237566233 0.0003404039889574051
0.09583132714033127 0.00722213089466095 -0.0006633885204792023
0.1102423369884491 0.006458883639425039 -0.0016671866178512573
0.12465335428714752 0.0053587136790156364 -0.002670982852578163
0.05267234891653061 -0.0024858422111719847 0.0010185344144701958
0.06705591082572937 -0.003799733240157366 1.4677643775939941e-05
0.08143945038318634 -0.0038343174383044243 -0.0009891781955957413
0.0929589793086052 -0.0031014736741781235 -0.0013857372105121613
0.10524222254753113 -0.0024604741483926773 -0.0019442401826381683
0.12459012120962143 -0.002761764684692025 -0.004000751301646233
0.12465333938598633 -0.005356506444513798 -0.002670988440513611
0.1102423220872879 -0.0064566717483103275 -0.0016671940684318542
0.09583131223917007 -0.007219921797513962 -0.0006634015589952469
0.08142028748989105 -0.007436343934386969 0.0003403928130865097
0.06700927019119263 -0.006540882866829634 0.0013441899791359901
0.052598245441913605 -0.0054200030863285065 0.0023479852825403214
0.02763543650507927 -0.003734265686944127 0.00323654105886817
0.02763543836772442 0.003736469428986311 0.0032365447841584682
0.02848043479025364 1.0988230769726215e-06 0.0017262855544686317
0.028267115354537964 0.0019273902289569378 0.002107548527419567
0.028267115354537964 -0.0019251914927735925 0.002107543870806694
0.13653406500816345 0.0022120738867670298 -0.005114175379276276
0.136655792593956 0.004288512747734785 -0.003786914050579071
0.13653405010700226 -0.002209871541708708 -0.005114175379276276
0.13649295270442963 1.1001477560057538e-06 -0.005562387406826019
0.1366557627916336 -0.004286304581910372 -0.003786921501159668
