0.03308168053627014 -5.8510605249750824e-09 -0.027985842898488045
0.03244602307677269 0.006453914567828178 -0.027985842898488045
0.030563488602638245 0.01265981886535883 -0.027985842898488045
0.027506424114108086 0.018379192799329758 -0.027985842898488045
0.02339227683842182 0.02339230291545391 -0.027985842898488045
0.018379198387265205 0.027506420388817787 -0.027985842898488045
0.012659810483455658 0.030563510954380035 -0.027985842898488045
0.0064539057202637196 0.03244604542851448 -0.027985842898488045
-9.070315165615739e-09 0.03308170288801193 -0.027985842898488045
-0.006453926209360361 0.03244604542851448 -0.027985842898488045
-0.012659817934036255 0.030563510954380035 -0.027985842898488045
-0.018379217013716698 0.027506420388817787 -0.027985842898488045
-0.023392299190163612 0.02339230291545391 -0.027985842898488045
-0.027506446465849876 0.018379192799329758 -0.027985842898488045
-0.030563509091734886 0.01265980489552021 -0.027985842898488045
-0.03244604170322418 0.0064539057202637196 -0.027985842898488045
-0.033081695437431335 -1.7419424125364458e-08 -0.027985842898488045
-0.03244604170322418 -0.006453941576182842 -0.027985842898488045
-0.030563509091734886 -0.012659839354455471 -0.027985842898488045
-0.027506418526172638 -0.018379222601652145 -0.027985842898488045
-0.023392299190163612 -0.02339230105280876 -0.027985842898488045
-0.01837918534874916 -0.027506452053785324 -0.027985842898488045
-0.012659802101552486 -0.030563514679670334 -0.027985842898488045
-0.006453902460634708 -0.03244604915380478 -0.027985842898488045
2.1164789032468434e-08 -0.03308170288801193 -0.027985842898488045
0.006453944835811853 -0.03244604915380478 -0.027985842898488045
0.012659842148423195 -0.030563481152057648 -0.027985842898488045
0.018379226326942444 -0.027506420388817787 -0.027985842898488045
0.02339230664074421 -0.023392273113131523 -0.027985842898488045
0.027506424114108086 -0.01837915927171707 -0.027985842898488045
0.030563516542315483 -0.012659776955842972 -0.027985842898488045
0.03244605287909508 -0.006453878711909056 -0.027985842898488045
0.03308168053627014 -5.8510605249750824e-09 -0.027985842898488045
0.03244602307677269 0.006453914567828178 -0.027985842898488045
0.030563488602638245 0.01265981886535883 -0.027985842898488045
0.027506424114108086 0.018379192799329758 -0.027985842898488045
0.02339227683842182 0.02339230291545391 -0.027985842898488045
0.018379198387265205 0.027506420388817787 -0.027985842898488045
0.012659810483455658 0.030563510954380035 -0.027985842898488045
0.0064539057202637196 0.03244604542851448 -0.027985842898488045
-9.070315165615739e-09 0.03308170288801193 -0.027985842898488045
-0.006453926209360361 0.03244604542851448 -0.027985842898488045
-0.012659817934036255 0.030563510954380035 -0.027985842898488045
-0.018379217013716698 0.027506420388817787 -0.027985842898488045
-0.023392299190163612 0.02339230291545391 -0.027985842898488045
-0.027506446465849876 0.018379192799329758 -0.027985842898488045
-0.030563509091734886 0.01265980489552021 -0.027985842898488045
-0.03244604170322418 0.0064539057202637196 -0.027985842898488045
-0.033081695437431335 -1.7419424125364458e-08 -0.027985842898488045
-0.03244604170322418 -0.006453941576182842 -0.027985842898488045
-0.030563509091734886 -0.012659839354455471 -0.027985842898488045
-0.027506418526172638 -0.018379222601652145 -0.027985842898488045
-0.023392299190163612 -0.02339230105280876 -0.027985842898488045
-0.01837918534874916 -0.027506452053785324 -0.027985842898488045
-0.012659802101552486 -0.030563514679670334 -0.027985842898488045
-0.006453902460634708 -0.03244604915380478 -0.027985842898488045
2.1164789032468434e-08 -0.03308170288801193 -0.027985842898488045
0.006453944835811853 -0.03244604915380478 -0.027985842898488045
0.012659842148423195 -0.030563481152057648 -0.027985842898488045
0.018379226326942444 -0.027506420388817787 -0.027985842898488045
0.02339230664074421 -0.023392273113131523 -0.027985842898488045
0.027506424114108086 -0.01837915927171707 -0.027985842898488045
0.030563516542315483 -0.012659776955842972 -0.027985842898488045
0.03244605287909508 -0.006453878711909056 -0.027985842898488045
0.045179590582847595 -7.388444078770817e-09 -0.009103544987738132
0.04431146755814552 0.008814100176095963 -0.009103544987738132
0.041740503162145615 0.01728949323296547 -0.009103544987738132
0.03756546974182129 0.025100428611040115 -0.009103544987738132
0.03194678574800491 0.031946826726198196 -0.009103544987738132
0.025100436061620712 0.03756546974182129 -0.009103544987738132
0.017289482057094574 0.0417405366897583 -0.009103544987738132
0.008814087137579918 0.044311508536338806 -0.009103544987738132
-1.228392765284525e-08 0.04517962783575058 -0.009103544987738132
-0.00881411787122488 0.044311508536338806 -0.009103544987738132
-0.01728948950767517 0.0417405366897583 -0.009103544987738132
-0.02510046772658825 0.03756546974182129 -0.009103544987738132
-0.0319468230009079 0.031946826726198196 -0.009103544987738132
-0.03756551072001457 0.025100428611040115 -0.009103544987738132
-0.041740532964468 0.017289474606513977 -0.009103544987738132
-0.04431150481104851 0.008814089000225067 -0.009103544987738132
-0.04517962038516998 -2.3187336495311683e-08 -0.009103544987738132
-0.04431150481104851 -0.008814136497676373 -0.009103544987738132
-0.041740532964468 -0.01728951744735241 -0.009103544987738132
-0.03756546229124069 -0.0251004695892334 -0.009103544987738132
-0.0319468230009079 -0.0319468230009079 -0.009103544987738132
-0.025100423023104668 -0.03756551444530487 -0.009103544987738132
-0.01728946715593338 -0.0417405404150486 -0.009103544987738132
-0.00881408341228962 -0.044311512261629105 -0.009103544987738132
2.9008031532384848e-08 -0.04517962783575058 -0.009103544987738132
0.008814141154289246 -0.044311512261629105 -0.009103544987738132
0.017289524897933006 -0.04174049198627472 -0.009103544987738132
0.025100477039813995 -0.03756546601653099 -0.009103544987738132
0.031946830451488495 -0.031946782022714615 -0.009103544987738132
0.03756546974182129 -0.025100387632846832 -0.009103544987738132
0.0417405366897583 -0.017289433628320694 -0.009103544987738132
0.044311512261629105 -0.008814050815999508 -0.009103544987738132
0.04146690294146538 -5.48723733118095e-10 0.06646990776062012
0.04067012295126915 0.008089792914688587 0.06646990776062012
0.03831043466925621 0.01586870662868023 0.06646990776062012
0.03447849303483963 0.02303776890039444 0.06646990776062012
0.02932153455913067 0.02932155132293701 0.06646990776062012
0.02303779125213623 0.034478478133678436 0.06646990776062012
0.015868712216615677 0.038310445845127106 0.06646990776062012
0.008089796639978886 0.04067014902830124 0.06646990776062012
9.507374443273875e-09 0.04146692529320717 0.06646990776062012
-0.008089782670140266 0.04067014902830124 0.06646990776062012
-0.01586867868900299 0.038310445845127106 0.06646990776062012
-0.023037774488329887 0.034478478133678436 0.06646990776062012
-0.029321514070034027 0.02932155132293701 0.06646990776062012
-0.034478481858968735 0.02303776890039444 0.06646990776062012
-0.03831041604280472 0.015868689864873886 0.06646990776062012
-0.04067012295126915 0.008089782670140266 0.06646990776062012
-0.04146689549088478 -1.5049323565108352e-08 0.06646990776062012
-0.04067012295126915 -0.008089814335107803 0.06646990776062012
-0.03831041604280472 -0.015868719667196274 0.06646990776062012
-0.03447843715548515 -0.02303779311478138 0.06646990776062012
-0.029321514070034027 -0.029321536421775818 0.06646990776062012
-0.023037733510136604 -0.034478507936000824 0.06646990776062012
-0.0158686600625515 -0.03831043094396591 0.06646990776062012
-0.00808975100517273 -0.040670137852430344 0.06646990776062012
4.7406075509570655e-08 -0.04146691784262657 0.06646990776062012
0.00808984600007534 -0.040670137852430344 0.06646990776062012
0.01586875133216381 -0.03831038996577263 0.06646990776062012
0.023037824779748917 -0.034478459507226944 0.06646990776062012
0.029321571812033653 -0.029321497306227684 0.06646990776062012
0.03447849303483963 -0.023037714883685112 0.06646990776062012
0.0383104644715786 -0.015868643298745155 0.06646990776062012
0.04067016392946243 -0.008089736104011536 0.06646990776062012
0.01998521015048027 -4.163763556164213e-09 -0.029280392453074455
0.01960119977593422 0.0038989197928458452 -0.029280392453074455
0.018463926389813423 0.007648013997823 -0.029280392453074455
0.016617100685834885 0.011103183031082153 -0.029280392453074455
0.01413167454302311 0.014131689444184303 -0.029280392453074455
0.011103187687695026 0.016617098823189735 -0.029280392453074455
0.007648009341210127 0.018463941290974617 -0.029280392453074455
0.003898914670571685 0.019601212814450264 -0.029280392453074455
-5.574013250964072e-09 0.019985223188996315 -0.029280392453074455
-0.003898927941918373 0.019601212814450264 -0.029280392453074455
-0.007648013066500425 0.018463941290974617 -0.029280392453074455
-0.011103201657533646 0.016617098823189735 -0.029280392453074455
-0.014131689444184303 0.014131689444184303 -0.029280392453074455
-0.016617117449641228 0.011103183031082153 -0.029280392453074455
-0.018463941290974617 0.007648004684597254 -0.029280392453074455
-0.019601210951805115 0.003898914670571685 -0.029280392453074455
-0.019985221326351166 -1.115241765603514e-08 -0.029280392453074455
-0.019601210951805115 -0.0038989372551441193 -0.029280392453074455
-0.018463941290974617 -0.00764802610501647 -0.029280392453074455
-0.016617098823189735 -0.011103203520178795 -0.029280392453074455
-0.014131689444184303 -0.014131691306829453 -0.029280392453074455
-0.011103183031082153 -0.016617123037576675 -0.029280392453074455
-0.007648003287613392 -0.018463943153619766 -0.029280392453074455
-0.0038989135064184666 -0.019601214677095413 -0.029280392453074455
1.269150740057512e-08 -0.019985225051641464 -0.029280392453074455
0.003898938186466694 -0.019601214677095413 -0.029280392453074455
0.007648027967661619 -0.018463924527168274 -0.029280392453074455
0.011103205382823944 -0.016617104411125183 -0.029280392453074455
0.014131691306829453 -0.01413167454302311 -0.029280392453074455
0.016617100685834885 -0.011103167198598385 -0.029280392453074455
0.018463945016264915 -0.007647988852113485 -0.029280392453074455
0.019601216539740562 -0.003898899769410491 -0.029280392453074455
0.005903910845518112 -1.917321190703092e-09 -0.02916463278234005
0.00579046830534935 0.0011517949169501662 -0.02916463278234005
0.005454502534121275 0.00225932989269495 -0.02916463278234005
0.004908923991024494 0.003280035452917218 -0.02916463278234005
0.0041746944189071655 0.004174698144197464 -0.02916463278234005
0.00328003684990108 0.004908923525363207 -0.02916463278234005
0.0022593289613723755 0.005454505793750286 -0.02916463278234005
0.0011517938692122698 0.005790471564978361 -0.02916463278234005
-1.8571546522849758e-09 0.005903913639485836 -0.02916463278234005
-0.0011517981765791774 0.005790471564978361 -0.02916463278234005
-0.002259330591186881 0.005454505793750286 -0.02916463278234005
-0.0032800412736833096 0.004908923525363207 -0.02916463278234005
-0.004174698609858751 0.004174698144197464 -0.02916463278234005
-0.004908927716314793 0.003280035452917218 -0.02916463278234005
-0.005454505793750286 0.0022593270987272263 -0.02916463278234005
-0.0057904720306396484 0.0011517932871356606 -0.02916463278234005
-0.005903915036469698 -3.98185706629306e-09 -0.02916463278234005
-0.0057904720306396484 -0.0011518014362081885 -0.02916463278234005
-0.005454505793750286 -0.0022593343164771795 -0.02916463278234005
-0.004908923991024494 -0.003280041739344597 -0.02916463278234005
-0.004174698609858751 -0.004174699541181326 -0.02916463278234005
-0.003280035452917218 -0.004908930975943804 -0.02916463278234005
-0.0022593277972191572 -0.005454509053379297 -0.02916463278234005
-0.001151793752796948 -0.005790474358946085 -0.02916463278234005
3.5387113239693235e-09 -0.005903916899114847 -0.02916463278234005
0.0011518008541315794 -0.005790474358946085 -0.02916463278234005
0.0022593343164771795 -0.005454502999782562 -0.02916463278234005
0.0032800419721752405 -0.004908925853669643 -0.02916463278234005
0.004174700006842613 -0.004174694884568453 -0.02916463278234005
0.004908923991024494 -0.0032800312619656324 -0.02916463278234005
0.005454508122056723 -0.002259323140606284 -0.02916463278234005
0.005790473893284798 -0.0011517902603372931 -0.02916463278234005
0.03902945667505264 -1.404458771503414e-10 0.06646990776062012
0.03827951103448868 0.007614270318299532 0.06646990776062012
0.03605852276086807 0.014935934916138649 0.06646990776062012
0.03245183080434799 0.021683594211935997 0.06646990776062012
0.027597997337579727 0.02759801223874092 0.06646990776062012
0.021683616563677788 0.0324518084526062 0.06646990776062012
0.014935940504074097 0.03605852648615837 0.06646990776062012
0.007614274974912405 0.03827952966094017 0.06646990776062012
1.0250829518554383e-08 0.03902947157621384 0.06646990776062012
-0.007614258676767349 0.03827952966094017 0.06646990776062012
-0.01493590697646141 0.03605852648615837 0.06646990776062012
-0.021683597937226295 0.0324518084526062 0.06646990776062012
-0.027597978711128235 0.02759801223874092 0.06646990776062012
-0.0324518121778965 0.021683594211935997 0.06646990776062012
-0.03605851158499718 0.014935918152332306 0.06646990776062012
-0.03827949985861778 0.007614261005073786 0.06646990776062012
-0.03902943804860115 -1.3788650221613352e-08 0.06646990776062012
-0.03827949985861778 -0.007614289876073599 0.06646990776062012
-0.03605851158499718 -0.014935948885977268 0.06646990776062012
-0.032451774924993515 -0.02168361470103264 0.06646990776062012
-0.027597978711128235 -0.027597995474934578 0.06646990776062012
-0.02168356068432331 -0.03245183452963829 0.06646990776062012
-0.014935887418687344 -0.03605852276086807 0.06646990776062012
-0.007614228408783674 -0.03827952593564987 0.06646990776062012
4.59218369996961e-08 -0.03902946412563324 0.06646990776062012
0.0076143210753798485 -0.03827952593564987 0.06646990776062012
0.014935977756977081 -0.03605848550796509 0.06646990776062012
0.021683650091290474 -0.032451801002025604 0.06646990776062012
0.027598032727837563 -0.027597961947321892 0.06646990776062012
0.03245183080434799 -0.021683545783162117 0.06646990776062012
0.03605855256319046 -0.014935873448848724 0.06646990776062012
0.03827955201268196 -0.0076142167672514915 0.06646990776062012
0.041344061493873596 -6.762162385598458e-09 -0.007744260132312775
0.04054964333772659 0.008065827190876007 -0.007744260132312775
0.03819694370031357 0.015821700915694237 -0.007744260132312775
0.0343763567507267 0.022969529032707214 -0.007744260132312775
0.029234666377305984 0.02923469804227352 -0.007744260132312775
0.022969534620642662 0.034376345574855804 -0.007744260132312775
0.01582168973982334 0.03819696605205536 -0.007744260132312775
0.008065815083682537 0.04054968059062958 -0.007744260132312775
-1.1207960781689508e-08 0.04134410247206688 -0.007744260132312775
-0.008065842092037201 0.04054968059062958 -0.007744260132312775
-0.015821699053049088 0.03819696605205536 -0.007744260132312775
-0.02296956069767475 0.034376345574855804 -0.007744260132312775
-0.029234692454338074 0.02923469804227352 -0.007744260132312775
-0.03437638282775879 0.022969529032707214 -0.007744260132312775
-0.03819696605205536 0.015821682289242744 -0.007744260132312775
-0.04054968059062958 0.008065816015005112 -0.007744260132312775
-0.041344091296195984 -2.121980635649834e-08 -0.007744260132312775
-0.04054968059062958 -0.008065859787166119 -0.007744260132312775
-0.03819696605205536 -0.015821726992726326 -0.007744260132312775
-0.034376345574855804 -0.0229695662856102 -0.007744260132312775
-0.029234692454338074 -0.029234694316983223 -0.007744260132312775
-0.022969519719481468 -0.034376390278339386 -0.007744260132312775
-0.015821678563952446 -0.03819696605205536 -0.007744260132312775
-0.008065810427069664 -0.04054968059062958 -0.007744260132312775
2.6578545586630753e-08 -0.04134410247206688 -0.007744260132312775
0.008065863512456417 -0.04054968059062958 -0.007744260132312775
0.015821728855371475 -0.038196928799152374 -0.007744260132312775
0.022969568148255348 -0.0343763567507267 -0.007744260132312775
0.029234709218144417 -0.02923465706408024 -0.007744260132312775
0.0343763567507267 -0.02296948805451393 -0.007744260132312775
0.03819696605205536 -0.01582164689898491 -0.007744260132312775
0.04054968059062958 -0.008065781556069851 -0.007744260132312775
0.02860832028090954 -4.966707045639396e-09 -0.007744260132312775
0.028058616444468498 0.005581207107752562 -0.007744260132312775
0.026430649682879448 0.010947938077151775 -0.007744260132312775
0.023786965757608414 0.015893928706645966 -0.007744260132312775
0.02022913470864296 0.02022915706038475 -0.007744260132312775
0.015893932431936264 0.023786960169672966 -0.007744260132312775
0.010947929695248604 0.026430662721395493 -0.007744260132312775
0.005581198260188103 0.028058640658855438 -0.007744260132312775
-7.468103468966092e-09 0.028608346357941628 -0.007744260132312775
-0.00558121595531702 0.028058640658855438 -0.007744260132312775
-0.0109479371458292 0.026430662721395493 -0.007744260132312775
-0.015893951058387756 0.023786960169672966 -0.007744260132312775
-0.020229153335094452 0.02022915706038475 -0.007744260132312775
-0.023786980658769608 0.015893928706645966 -0.007744260132312775
-0.026430658996105194 0.01094792503863573 -0.007744260132312775
-0.02805863693356514 0.005581199191510677 -0.007744260132312775
-0.02860833704471588 -1.4970769512956394e-08 -0.007744260132312775
-0.02805863693356514 -0.005581228993833065 -0.007744260132312775
-0.026430658996105194 -0.010947957634925842 -0.007744260132312775
-0.02378695458173752 -0.015893956646323204 -0.007744260132312775
-0.020229153335094452 -0.0202291551977396 -0.007744260132312775
-0.01589392125606537 -0.023786984384059906 -0.007744260132312775
-0.010947924107313156 -0.026430660858750343 -0.007744260132312775
-0.005581194069236517 -0.02805863879621029 -0.007744260132312775
1.8678514734915552e-08 -0.02860834449529648 -0.007744260132312775
0.0055812327191233635 -0.02805863879621029 -0.007744260132312775
0.010947956703603268 -0.026430634781718254 -0.007744260132312775
0.015893956646323204 -0.023786963894963264 -0.007744260132312775
0.020229164510965347 -0.020229129120707512 -0.007744260132312775
0.023786965757608414 -0.015893904492259026 -0.007744260132312775
0.026430662721395493 -0.01094790268689394 -0.007744260132312775
0.028058640658855438 -0.005581174977123737 -0.007744260132312775
0.012105057947337627 -2.748413718833831e-09 -0.007744260132312775
0.011872460134327412 0.0023615797981619835 -0.007744260132312775
0.011183619499206543 0.004632407333701849 -0.007744260132312775
0.010064994916319847 0.006725207902491093 -0.007744260132312775
0.008559567853808403 0.008559576235711575 -0.007744260132312775
0.006725212559103966 0.010064990259706974 -0.007744260132312775
0.004632406868040562 0.011183622293174267 -0.007744260132312775
0.0023615765385329723 0.011872469447553158 -0.007744260132312775
-2.7218385323379835e-09 0.012105068191885948 -0.007744260132312775
-0.002361584221944213 0.011872469447553158 -0.007744260132312775
-0.004632407799363136 0.011183622293174267 -0.007744260132312775
-0.006725218612700701 0.010064990259706974 -0.007744260132312775
-0.00855957716703415 0.008559576235711575 -0.007744260132312775
-0.010065003298223019 0.006725207902491093 -0.007744260132312775
-0.011183624155819416 0.004632402211427689 -0.007744260132312775
-0.011872473172843456 0.0023615765385329723 -0.007744260132312775
-0.012105068191885948 -6.981448308351901e-09 -0.007744260132312775
-0.011872473172843456 -0.0023615898098796606 -0.007744260132312775
-0.011183624155819416 -0.004632418975234032 -0.007744260132312775
-0.010064993053674698 -0.006725222337990999 -0.007744260132312775
-0.00855957716703415 -0.008559579961001873 -0.007744260132312775
-0.006725206505507231 -0.010065007954835892 -0.007744260132312775
-0.004632401745766401 -0.011183626018464565 -0.007744260132312775
-0.002361574675887823 -0.011872475035488605 -0.007744260132312775
8.341599411210154e-09 -0.012105070985853672 -0.007744260132312775
0.0023615912068635225 -0.011872475035488605 -0.007744260132312775
0.00463241757825017 -0.011183617636561394 -0.007744260132312775
0.006725222337990999 -0.010064996778964996 -0.007744260132312775
0.008559580892324448 -0.008559566922485828 -0.007744260132312775
0.010064994916319847 -0.006725200451910496 -0.007744260132312775
0.01118362508714199 -0.004632394760847092 -0.007744260132312775
0.011872471310198307 -0.002361567225307226 -0.007744260132312775
-0.022860346361994743 -0.034212999045848846 -0.005105283111333847
-0.015746477991342545 -0.038015417754650116 -0.005105283111333847
-1.115573500243272e-08 0.041147589683532715 -0.005105283111333847
-0.00802750512957573 0.04035694897174835 -0.005105283111333847
-0.008027473464608192 -0.04035695269703865 -0.005105277989059687
-0.015746500343084335 0.038015417754650116 -0.005105283111333847
2.6451129286897412e-08 -0.041147589683532715 -0.005105283111333847
-0.022860387340188026 0.034212954342365265 -0.005105283111333847
0.00802752748131752 -0.04035695269703865 -0.005105283111333847
-0.029095742851495743 0.02909574843943119 -0.005105283111333847
0.015746530145406723 -0.03801538050174713 -0.005105283111333847
-0.03421299532055855 0.02286035567522049 -0.005105283111333847
0.022860394790768623 -0.03421296551823616 -0.005105283111333847
-0.038015417754650116 0.015746481716632843 -0.005105283111333847
0.04114755243062973 -6.73342803736432e-09 -0.005105277989059687
0.040356915444135666 0.00802749115973711 -0.005105283111333847
0.029095757752656937 -0.029095705598592758 -0.005105283111333847
-0.04035695269703865 0.008027479983866215 -0.005105283111333847
0.038015395402908325 0.015746502205729485 -0.005105283111333847
0.03421296551823616 -0.022860316559672356 -0.005105277989059687
-0.04114758223295212 -2.11223625257162e-08 -0.005105283111333847
0.03421296551823616 0.02286035567522049 -0.005105283111333847
0.038015417754650116 -0.015746448189020157 -0.005105277989059687
-0.04035695269703865 -0.008027523756027222 -0.005105283111333847
0.029095714911818504 0.02909574843943119 -0.005105283111333847
0.04035695269703865 -0.008027445524930954 -0.005105277989059687
-0.038015417754650116 -0.015746528282761574 -0.005105283111333847
0.022860363125801086 0.034212954342365265 -0.005105283111333847
-0.03421295806765556 -0.022860391065478325 -0.005105283111333847
0.01574649102985859 0.038015417754650116 -0.005105283111333847
-0.029095742851495743 -0.029095744714140892 -0.005105283111333847
0.00802747905254364 0.04035694897174835 -0.005105277989059687
-0.017209256067872047 -0.04154689237475395 -0.006848224438726902
-0.008773192763328552 -0.04410594329237938 -0.006848224438726902
-0.008773228153586388 0.04410593956708908 -0.006848224438726902
-0.017209280282258987 0.04154689237475395 -0.006848224438726902
2.8871331991808802e-08 -0.04497003182768822 -0.006848224438726902
-0.024984018877148628 0.03739120066165924 -0.006848224438726902
0.008773249574005604 -0.04410594329237938 -0.006848224438726902
-0.03179861605167389 0.03179861977696419 -0.006848224438726902
0.017209313809871674 -0.04154685139656067 -0.006848224438726902
-0.03739123418927193 0.024983981624245644 -0.006848224438726902
0.024984030053019524 -0.03739120066165924 -0.006848224438726902
-0.041546888649463654 0.017209265381097794 -0.006848224438726902
0.04496999457478523 -7.357286779807737e-09 -0.006848224438726902
0.0441058985888958 0.008773209527134895 -0.006848224438726902
0.031798623502254486 -0.031798575073480606 -0.006848224438726902
-0.04410593584179878 0.008773197419941425 -0.006848224438726902
0.041546862572431564 0.017209285870194435 -0.006848224438726902
0.03739120438694954 -0.02498394437134266 -0.006848224438726902
-0.04497002065181732 -2.3082895594939146e-08 -0.006848224438726902
0.03739120438694954 0.024983981624245644 -0.006848224438726902
0.04154689610004425 -0.01720922440290451 -0.006848224438726902
-0.04410593584179878 -0.008773245848715305 -0.006848224438726902
0.031798578798770905 0.03179861977696419 -0.006848224438726902
0.04410594329237938 -0.008773161098361015 -0.006848224438726902
-0.041546888649463654 -0.017209308221936226 -0.006848224438726902
0.024983994662761688 0.03739120066165924 -0.006848224438726902
-0.03739119693636894 -0.024984022602438927 -0.006848224438726902
0.01720927283167839 0.04154689237475395 -0.006848224438726902
-0.03179861605167389 -0.03179861605167389 -0.006848224438726902
0.008773195557296276 0.04410593956708908 -0.006848224438726902
-0.024983977898955345 -0.037391237914562225 -0.006848224438726902
-1.2229041779221461e-08 0.04497003182768822 -0.006848224438726902
0.007981114089488983 -0.040123503655195236 0.06646990776062012
0.01565546728670597 -0.03779548034071922 0.06646990776062012
-0.02892742119729519 0.028927456587553024 0.06646990776062012
-0.034015074372291565 0.022728130221366882 0.06646990776062012
0.02272818423807621 -0.03401505574584007 0.06646990776062012
-0.03779550641775131 0.015655405819416046 0.06646990776062012
0.040909573435783386 -4.537739073384728e-10 0.06646990776062012
0.04012349247932434 0.00798106286674738 0.06646990776062012
0.028927477076649666 -0.028927398845553398 0.06646990776062012
-0.04012348875403404 0.007981052622199059 0.06646990776062012
0.037795521318912506 0.01565542258322239 0.06646990776062012
0.03401508927345276 -0.022728078067302704 0.06646990776062012
-0.040909551084041595 -1.4759493183191807e-08 0.06646990776062012
0.03401508927345276 0.022728130221366882 0.06646990776062012
0.03779555484652519 -0.015655359253287315 0.06646990776062012
-0.04012348875403404 -0.00798108335584402 0.06646990776062012
0.028927436098456383 0.028927456587553024 0.06646990776062012
0.04012353718280792 -0.007981006056070328 0.06646990776062012
-0.03779550641775131 -0.015655435621738434 0.06646990776062012
0.022728150710463524 0.03401506692171097 0.06646990776062012
-0.03401503339409828 -0.022728154435753822 0.06646990776062012
0.015655430033802986 0.0377955362200737 0.06646990776062012
-0.02892742119729519 -0.028927437961101532 0.06646990776062012
0.007981066592037678 0.04012351855635643 0.06646990776062012
-0.022728094831109047 -0.034015096724033356 0.06646990776062012
9.681940582595416e-09 0.04090958461165428 0.06646990776062012
-0.01565537601709366 -0.037795521318912506 0.06646990776062012
-0.00798105075955391 0.04012351855635643 0.06646990776062012
-0.007981020025908947 -0.040123503655195236 0.06646990776062012
-0.0156553965061903 0.0377955362200737 0.06646990776062012
4.7071239350771066e-08 -0.040909573435783386 0.06646990776062012
-0.02272813767194748 0.03401506692171097 0.06646990776062012
-0.02800936996936798 -0.018715282902121544 -0.027041729539632797
-0.023820023983716965 -0.023820025846362114 -0.027041729539632797
0.012891294434666634 0.031122364103794098 -0.027041729539632797
0.006571915000677109 0.03303932026028633 -0.027041729539632797
-0.018715249374508858 -0.028009405359625816 -0.027041729539632797
-9.23099285898843e-09 0.033686600625514984 -0.027041729539632797
-0.012891285121440887 -0.031122364103794098 -0.027041729539632797
-0.006571935955435038 0.03303932026028633 -0.027041729539632797
-0.00657191127538681 -0.03303932026028633 -0.027041729539632797
-0.01289130188524723 0.031122364103794098 -0.027041729539632797
2.1556958884616506e-08 -0.03368660435080528 -0.027041729539632797
-0.018715281039476395 0.02800937183201313 -0.027041729539632797
0.00657195458188653 -0.03303932026028633 -0.027041729539632797
-0.023820023983716965 0.023820027709007263 -0.027041729539632797
0.012891325168311596 -0.031122330576181412 -0.027041729539632797
-0.02800939790904522 0.018715253099799156 -0.027041729539632797
0.01871528849005699 -0.02800937183201313 -0.027041729539632797
-0.0311223603785038 0.012891288846731186 -0.027041729539632797
0.033686574548482895 -5.927929258575659e-09 -0.027041729539632797
0.03303929418325424 0.006571923848241568 -0.027041729539632797
0.02382003329694271 -0.023819996044039726 -0.027041729539632797
-0.03303931653499603 0.006571915000677109 -0.027041729539632797
0.03112233802676201 0.012891302816569805 -0.027041729539632797
0.02800937555730343 -0.01871522329747677 -0.027041729539632797
-0.033686596900224686 -1.7707822763668446e-08 -0.027041729539632797
0.02800937555730343 0.018715253099799156 -0.027041729539632797
0.031122364103794098 -0.012891259975731373 -0.027041729539632797
-0.03303931653499603 -0.006571951322257519 -0.027041729539632797
0.023819999769330025 0.023820027709007263 -0.027041729539632797
0.03303932771086693 -0.006571887526661158 -0.027041729539632797
-0.0311223603785038 -0.012891322374343872 -0.027041729539632797
0.018715260550379753 0.02800937183201313 -0.027041729539632797
-0.03397507220506668 -0.022701445966959 -0.01807263493537903
0.015637006610631943 0.03775111213326454 -0.01807263493537903
0.040861472487449646 -6.893440485100655e-09 -0.01807263493537903
-0.028893448412418365 -0.028893448412418365 -0.01807263493537903
0.007971664890646935 0.0400763563811779 -0.01807263493537903
-0.022701404988765717 -0.03397512063384056 -0.01807263493537903
-1.1138494571127922e-08 0.040861502289772034 -0.01807263493537903
-0.015636995434761047 -0.03775111213326454 -0.01807263493537903
-0.007971690967679024 0.0400763563811779 -0.01807263493537903
-0.007971661165356636 -0.0400763601064682 -0.01807263493537903
-0.015637017786502838 0.03775111213326454 -0.01807263493537903
2.6206944170326096e-08 -0.040861502289772034 -0.01807263493537903
-0.02270144410431385 0.033975087106227875 -0.01807263493537903
0.007971714250743389 -0.0400763601064682 -0.01807263493537903
-0.028893448412418365 0.028893454000353813 -0.01807263493537903
0.015637045726180077 -0.03775106742978096 -0.01807263493537903
-0.03397512063384056 0.022701408714056015 -0.01807263493537903
0.022701453417539597 -0.033975087106227875 -0.01807263493537903
-0.03775111585855484 0.015636999160051346 -0.01807263493537903
0.04007631540298462 0.00797167606651783 -0.01807263493537903
0.028893454000353813 -0.02889340929687023 -0.01807263493537903
-0.040076352655887604 0.007971665821969509 -0.01807263493537903
0.03775107488036156 0.015637019649147987 -0.01807263493537903
0.033975083380937576 -0.02270137332379818 -0.01807263493537903
-0.040861498564481735 -2.118233410897119e-08 -0.01807263493537903
0.033975083380937576 0.022701408714056015 -0.01807263493537903
0.037751104682683945 -0.01563696563243866 -0.01807263493537903
-0.040076352655887604 -0.007971708662807941 -0.01807263493537903
0.02889341674745083 0.028893454000353813 -0.01807263493537903
0.0400763601064682 -0.007971632294356823 -0.01807263493537903
-0.03775111585855484 -0.015637043863534927 -0.01807263493537903
0.022701416164636612 0.033975087106227875 -0.01807263493537903
