5.127934521453881e-09 0.02720392309129238 -0.03682243451476097
-0.005823040846735239 0.026630401611328125 -0.03682243451476097
-0.01142231747508049 0.024931883439421654 -0.03682243451476097
-0.016582617536187172 0.022173650562763214 -0.03682243451476097
-0.0211056899279356 0.018461667001247406 -0.03682243451476097
-0.024817653000354767 0.013938619755208492 -0.03682243451476097
-0.027575911954045296 0.008778305724263191 -0.03682243451476097
-0.02927442640066147 0.003179029794409871 -0.03682243451476097
-0.029847947880625725 -0.0026440108194947243 -0.03682243451476097
-0.02927442640066147 -0.0084670539945364 -0.03682243451476097
-0.027575911954045296 -0.014066317118704319 -0.03682243451476097
-0.024817653000354767 -0.019226644188165665 -0.03682243451476097
-0.0211056899279356 -0.023749692365527153 -0.03682243451476097
-0.016582617536187172 -0.02746168151497841 -0.03682243451476097
-0.011422304436564445 -0.030219916254281998 -0.03682243451476097
-0.005823033861815929 -0.03191842883825302 -0.03682243451476097
1.4853615226684269e-08 -0.03249194845557213 -0.03682243451476097
0.005823064595460892 -0.03191842883825302 -0.03682243451476097
0.01142233144491911 -0.030219916254281998 -0.03682243451476097
0.01658264361321926 -0.02746165730059147 -0.03682243451476097
0.0211056936532259 -0.023749692365527153 -0.03682243451476097
0.024817682802677155 -0.019226614385843277 -0.03682243451476097
0.027575913816690445 -0.0140663031488657 -0.03682243451476097
0.029274433851242065 -0.008467034436762333 -0.03682243451476097
0.029847949743270874 -0.0026439842768013477 -0.03682243451476097
0.029274433851242065 0.0031790651846677065 -0.03682243451476097
0.027575885877013206 0.00877833366394043 -0.03682243451476097
0.024817656725645065 0.013938643969595432 -0.03682243451476097
0.02110566757619381 0.018461693078279495 -0.03682243451476097
0.016582587733864784 0.022173650562763214 -0.03682243451476097
0.011422276496887207 0.024931909516453743 -0.03682243451476097
0.005823009181767702 0.026630429551005363 -0.03682243451476097
5.127934521453881e-09 0.02720392309129238 -0.03682243451476097
-0.005823040846735239 0.026630401611328125 -0.03682243451476097
-0.01142231747508049 0.024931883439421654 -0.03682243451476097
-0.016582617536187172 0.022173650562763214 -0.03682243451476097
-0.0211056899279356 0.018461667001247406 -0.03682243451476097
-0.024817653000354767 0.013938619755208492 -0.03682243451476097
-0.027575911954045296 0.008778305724263191 -0.03682243451476097
-0.02927442640066147 0.003179029794409871 -0.03682243451476097
-0.029847947880625725 -0.0026440108194947243 -0.03682243451476097
-0.02927442640066147 -0.0084670539945364 -0.03682243451476097
-0.027575911954045296 -0.014066317118704319 -0.03682243451476097
-0.024817653000354767 -0.019226644188165665 -0.03682243451476097
-0.0211056899279356 -0.023749692365527153 -0.03682243451476097
-0.016582617536187172 -0.02746168151497841 -0.03682243451476097
-0.011422304436564445 -0.030219916254281998 -0.03682243451476097
-0.005823033861815929 -0.03191842883825302 -0.03682243451476097
1.4853615226684269e-08 -0.03249194845557213 -0.03682243451476097
0.005823064595460892 -0.03191842883825302 -0.03682243451476097
0.01142233144491911 -0.030219916254281998 -0.03682243451476097
0.01658264361321926 -0.02746165730059147 -0.03682243451476097
0.0211056936532259 -0.023749692365527153 -0.03682243451476097
0.024817682802677155 -0.019226614385843277 -0.03682243451476097
0.027575913816690445 -0.0140663031488657 -0.03682243451476097
0.029274433851242065 -0.008467034436762333 -0.03682243451476097
0.029847949743270874 -0.0026439842768013477 -0.03682243451476097
0.029274433851242065 0.0031790651846677065 -0.03682243451476097
0.027575885877013206 0.00877833366394043 -0.03682243451476097
0.024817656725645065 0.013938643969595432 -0.03682243451476097
0.02110566757619381 0.018461693078279495 -0.03682243451476097
0.016582587733864784 0.022173650562763214 -0.03682243451476097
0.011422276496887207 0.024931909516453743 -0.03682243451476097
0.005823009181767702 0.026630429551005363 -0.03682243451476097
1.1342933703417657e-08 0.03563820198178291 -0.023247551172971725
-0.0074684820137917995 0.034902606159448624 -0.023247551172971725
-0.014649971388280392 0.03272414207458496 -0.023247551172971725
-0.021268442273139954 0.029186498373746872 -0.023247551172971725
-0.02706962823867798 0.024425586685538292 -0.023247551172971725
-0.031830500811338425 0.01862444169819355 -0.023247551172971725
-0.0353681743144989 0.012005956843495369 -0.023247551172971725
-0.03754664212465286 0.0048244670033454895 -0.023247551172971725
-0.038282234221696854 -0.002644019667059183 -0.023247551172971725
-0.03754664212465286 -0.010112510994076729 -0.023247551172971725
-0.0353681743144989 -0.017293982207775116 -0.023247551172971725
-0.031830500811338425 -0.023912491276860237 -0.023247551172971725
-0.02706962823867798 -0.029713643714785576 -0.023247551172971725
-0.021268442273139954 -0.03447454422712326 -0.023247551172971725
-0.014649954624474049 -0.03801218047738075 -0.023247551172971725
-0.007468474097549915 -0.04019065573811531 -0.023247551172971725
2.381682406848995e-08 -0.040926236659288406 -0.023247551172971725
0.007468522526323795 -0.04019065573811531 -0.023247551172971725
0.014650002121925354 -0.03801218047738075 -0.023247551172971725
0.021268488839268684 -0.034474506974220276 -0.023247551172971725
0.027069635689258575 -0.029713643714785576 -0.023247551172971725
0.031830545514822006 -0.0239124558866024 -0.023247551172971725
0.0353681817650795 -0.017293963581323624 -0.023247551172971725
0.037546657025814056 -0.01011248491704464 -0.023247551172971725
0.03828224167227745 -0.0026439856737852097 -0.023247551172971725
0.037546657025814056 0.004824510775506496 -0.023247551172971725
0.035368144512176514 0.012005994096398354 -0.023247551172971725
0.03183050453662872 0.018624480813741684 -0.023247551172971725
0.02706960029900074 0.024425623938441277 -0.023247551172971725
0.021268418058753014 0.029186498373746872 -0.023247551172971725
0.014649930410087109 0.03272416815161705 -0.023247551172971725
0.007468450348824263 0.03490264341235161 -0.023247551172971725
5.247038359357248e-09 0.03287974372506142 0.11186894029378891
-0.006930339150130749 0.03219716623425484 0.11186894029378891
-0.013594361953437328 0.03017566166818142 0.11186894029378891
-0.01973593235015869 0.026892924681305885 0.11186894029378891
-0.025119107216596603 0.022475073114037514 0.11186894029378891
-0.029536928981542587 0.017091935500502586 0.11186894029378891
-0.03281969204545021 0.010950347408652306 0.11186894029378891
-0.03484119847416878 0.004286326467990875 0.11186894029378891
-0.03552377596497536 -0.00264401244930923 0.11186894029378891
-0.03484119847416878 -0.009574354626238346 0.11186894029378891
-0.03281969204545021 -0.016238361597061157 0.11186894029378891
-0.029536928981542587 -0.02237996645271778 0.11186894029378891
-0.025119107216596603 -0.027763109654188156 0.11186894029378891
-0.01973593235015869 -0.032180964946746826 0.11186894029378891
-0.01359434612095356 -0.03546369448304176 0.11186894029378891
-0.0069303312338888645 -0.03748519718647003 0.11186894029378891
1.682213124354348e-08 -0.03816777467727661 0.11186894029378891
0.006930366158485413 -0.03748519718647003 0.11186894029378891
0.01359438057988882 -0.03546369448304176 0.11186894029378891
0.019735965877771378 -0.03218092769384384 0.11186894029378891
0.025119107216596603 -0.027763109654188156 0.11186894029378891
0.029536964371800423 -0.022379932925105095 0.11186894029378891
0.03281969204545021 -0.016238344833254814 0.11186894029378891
0.03484119474887848 -0.009574328549206257 0.11186894029378891
0.035523779690265656 -0.002643980784341693 0.11186894029378891
0.03484119474887848 0.004286367446184158 0.11186894029378891
0.032819658517837524 0.010950380936264992 0.11186894029378891
0.029536928981542587 0.017091963440179825 0.11186894029378891
0.025119073688983917 0.0224751103669405 0.11186894029378891
0.019735898822546005 0.026892924681305885 0.11186894029378891
0.013594312593340874 0.03017568774521351 0.11186894029378891
0.006930300034582615 0.03219719976186752 0.11186894029378891
3.464654785290122e-09 0.015387644059956074 -0.03748088702559471
-0.003517797915264964 0.015041167847812176 -0.03748088702559471
-0.006900417152792215 0.01401506643742323 -0.03748088702559471
-0.010017842054367065 0.01234876923263073 -0.03748088702559471
-0.012750311754643917 0.010106293484568596 -0.03748088702559471
-0.014992771670222282 0.0073738424107432365 -0.03748088702559471
-0.016659080982208252 0.004256408661603928 -0.03748088702559471
-0.017685184255242348 0.000873791053891182 -0.03748088702559471
-0.018031656742095947 -0.0026440077926963568 -0.03748088702559471
-0.017685184255242348 -0.006161808501929045 -0.03748088702559471
-0.016659080982208252 -0.009544418193399906 -0.03748088702559471
-0.014992771670222282 -0.012661860324442387 -0.03748088702559471
-0.012750311754643917 -0.01539431232959032 -0.03748088702559471
-0.010017842054367065 -0.01763678900897503 -0.03748088702559471
-0.006900409236550331 -0.019303083419799805 -0.03748088702559471
-0.003517793957144022 -0.0203291866928339 -0.03748088702559471
9.340124229595403e-09 -0.02067566104233265 -0.03748088702559471
0.0035178139805793762 -0.0203291866928339 -0.03748088702559471
0.006900426931679249 -0.019303083419799805 -0.03748088702559471
0.010017858818173409 -0.017636772245168686 -0.03748088702559471
0.012750309891998768 -0.01539431232959032 -0.03748088702559471
0.0149927893653512 -0.012661844491958618 -0.03748088702559471
0.0166590828448534 -0.00954441074281931 -0.03748088702559471
0.017685187980532646 -0.006161795929074287 -0.03748088702559471
0.018031660467386246 -0.0026439917273819447 -0.03748088702559471
0.017685187980532646 0.0008738120086491108 -0.03748088702559471
0.016659066081047058 0.004256426356732845 -0.03748088702559471
0.014992771670222282 0.007373858243227005 -0.03748088702559471
0.012750294990837574 0.01010630838572979 -0.03748088702559471
0.010017826221883297 0.01234876923263073 -0.03748088702559471
0.006900393404066563 0.014015081338584423 -0.03748088702559471
0.00351778045296669 0.015041186474263668 -0.03748088702559471
1.2863041742861014e-09 0.0026827973779290915 -0.03750966861844063
-0.001039206748828292 0.002580444561317563 -0.03750966861844063
-0.002038479782640934 0.0022773186210542917 -0.03750966861844063
-0.0029594101943075657 0.0017850713338702917 -0.03750966861844063
-0.003766619600355625 0.001122612738981843 -0.03750966861844063
-0.004429073538631201 0.0003154089208692312 -0.03750966861844063
-0.004921325482428074 -0.0006055247504264116 -0.03750966861844063
-0.005224450025707483 -0.00160479755140841 -0.03750966861844063
-0.005326803773641586 -0.0026440045330673456 -0.03750966861844063
-0.005224450025707483 -0.003683212213218212 -0.03750966861844063
-0.004921325482428074 -0.004682482685893774 -0.03750966861844063
-0.004429073538631201 -0.005603417754173279 -0.03750966861844063
-0.003766619600355625 -0.0064106229692697525 -0.03750966861844063
-0.0029594101943075657 -0.007073080167174339 -0.03750966861844063
-0.00203847698867321 -0.007565327920019627 -0.03750966861844063
-0.0010392054682597518 -0.007868453860282898 -0.03750966861844063
3.0219911018036782e-09 -0.007970808073878288 -0.03750966861844063
0.0010392116382718086 -0.007868453860282898 -0.03750966861844063
0.002038482576608658 -0.007565327920019627 -0.03750966861844063
0.002959416713565588 -0.0070730773732066154 -0.03750966861844063
0.0037666205316781998 -0.0064106229692697525 -0.03750966861844063
0.004429080057889223 -0.005603413097560406 -0.03750966861844063
0.004921326879411936 -0.0046824803575873375 -0.03750966861844063
0.005224451422691345 -0.0036832084879279137 -0.03750966861844063
0.005326805170625448 -0.0026439998764544725 -0.03750966861844063
0.005224451422691345 -0.001604791497811675 -0.03750966861844063
0.004921322222799063 -0.0006055198609828949 -0.03750966861844063
0.004429075866937637 0.0003154135774821043 -0.03750966861844063
0.003766616340726614 0.0011226183269172907 -0.03750966861844063
0.002959407167509198 0.0017850713338702917 -0.03750966861844063
0.0020384725648909807 0.0022773242089897394 -0.03750966861844063
0.0010392017429694533 0.002580448752269149 -0.03750966861844063
4.872351411222553e-09 0.030791638419032097 0.11186894029378891
-0.006522969342768192 0.030149174854159355 0.11186894029378891
-0.012795276008546352 0.028246503323316574 0.11186894029378891
-0.018575841560959816 0.02515672892332077 0.11186894029378891
-0.023642592132091522 0.020998559892177582 0.11186894029378891
-0.027800729498267174 0.01593184471130371 0.11186894029378891
-0.03089052438735962 0.010151266120374203 0.11186894029378891
-0.032793205231428146 0.003878957824781537 0.11186894029378891
-0.03343566507101059 -0.002644011750817299 0.11186894029378891
-0.032793205231428146 -0.00916698481887579 0.11186894029378891
-0.03089052438735962 -0.015439276583492756 0.11186894029378891
-0.027800729498267174 -0.021219873800873756 0.11186894029378891
-0.023642592132091522 -0.026286594569683075 0.11186894029378891
-0.018575841560959816 -0.030444763600826263 0.11186894029378891
-0.012795262038707733 -0.03353453800082207 0.11186894029378891
-0.006522962357848883 -0.03543721139431 0.11186894029378891
1.5767056993354345e-08 -0.036079663783311844 0.11186894029378891
0.0065229954198002815 -0.03543721139431 0.11186894029378891
0.01279529556632042 -0.03353453800082207 0.11186894029378891
0.018575873225927353 -0.030444730073213577 0.11186894029378891
0.023642592132091522 -0.026286594569683075 0.11186894029378891
0.027800768613815308 -0.02121984213590622 0.11186894029378891
0.030890535563230515 -0.015439260751008987 0.11186894029378891
0.03279321268200874 -0.00916696060448885 0.11186894029378891
0.033435672521591187 -0.002643981948494911 0.11186894029378891
0.03279321268200874 0.0038789964746683836 0.11186894029378891
0.03089050203561783 0.010151294991374016 0.11186894029378891
0.02780073508620262 0.01593187265098095 0.11186894029378891
0.023642560467123985 0.020998593419790268 0.11186894029378891
0.01857581175863743 0.02515672892332077 0.11186894029378891
0.012795230373740196 0.028246529400348663 0.11186894029378891
0.006522933021187782 0.030149204656481743 0.11186894029378891
1.0773533176688943e-08 0.03238822519779205 -0.018890364095568657
-0.006834444589912891 0.03171508386731148 -0.018890364095568657
-0.013406259939074516 0.029721558094024658 -0.018890364095568657
-0.019462859258055687 0.02648424170911312 -0.018890364095568657
-0.024771548807621002 0.022127514705061913 -0.018890364095568657
-0.029128246009349823 0.016818856820464134 -0.018890364095568657
-0.0323655903339386 0.010762246325612068 -0.018890364095568657
-0.034359123557806015 0.004190430510789156 -0.018890364095568657
-0.035032257437705994 -0.002644018968567252 -0.018890364095568657
-0.034359123557806015 -0.009478472173213959 -0.018890364095568657
-0.0323655903339386 -0.016050275415182114 -0.018890364095568657
-0.029128246009349823 -0.022106900811195374 -0.018890364095568657
-0.024771548807621002 -0.0274155605584383 -0.018890364095568657
-0.019462859258055687 -0.03177228942513466 -0.018890364095568657
-0.013406245037913322 -0.03500960022211075 -0.018890364095568657
-0.006834436673671007 -0.037003133445978165 -0.018890364095568657
2.2188430648384383e-08 -0.03767626732587814 -0.018890364095568657
0.006834482308477163 -0.037003133445978165 -0.018890364095568657
0.013406289741396904 -0.03500960022211075 -0.018890364095568657
0.01946290023624897 -0.03177225962281227 -0.018890364095568657
0.024771559983491898 -0.0274155605584383 -0.018890364095568657
0.029128290712833405 -0.022106867283582687 -0.018890364095568657
0.0323655940592289 -0.016050254926085472 -0.018890364095568657
0.03435913473367691 -0.00947844609618187 -0.018890364095568657
0.03503226488828659 -0.0026439877692610025 -0.018890364095568657
0.03435913473367691 0.004190470091998577 -0.018890364095568657
0.03236556425690651 0.01076227892190218 -0.018890364095568657
0.029128260910511017 0.016818884760141373 -0.018890364095568657
0.02477152831852436 0.022127551957964897 -0.018890364095568657
0.019462836906313896 0.02648424170911312 -0.018890364095568657
0.013406223617494106 0.029721587896347046 -0.018890364095568657
0.006834416650235653 0.031715117394924164 -0.018890364095568657
9.123482413997408e-09 0.021596791222691536 -0.020243119448423386
-0.004729141481220722 0.021131008863449097 -0.020243119448423386
-0.009276555851101875 0.01975157856941223 -0.020243119448423386
-0.013467461802065372 0.01751149445772171 -0.020243119448423386
-0.01714084856212139 0.014496825635433197 -0.020243119448423386
-0.020155491307377815 0.010823460295796394 -0.020243119448423386
-0.022395595908164978 0.006632544100284576 -0.020243119448423386
-0.02377503365278244 0.002085129264742136 -0.020243119448423386
-0.024240819737315178 -0.0026440159417688847 -0.020243119448423386
-0.02377503365278244 -0.007373163476586342 -0.020243119448423386
-0.022395595908164978 -0.011920569464564323 -0.020243119448423386
-0.020155491307377815 -0.016111494973301888 -0.020243119448423386
-0.01714084856212139 -0.01978486031293869 -0.020243119448423386
-0.013467461802065372 -0.022799529135227203 -0.020243119448423386
-0.009276545606553555 -0.025039609521627426 -0.020243119448423386
-0.004729135427623987 -0.026419050991535187 -0.020243119448423386
1.7022102838382125e-08 -0.026884831488132477 -0.020243119448423386
0.004729169886559248 -0.026419050991535187 -0.020243119448423386
0.009276581928133965 -0.025039609521627426 -0.020243119448423386
0.01346749346703291 -0.022799508646130562 -0.020243119448423386
0.017140856012701988 -0.01978486031293869 -0.020243119448423386
0.02015553042292595 -0.016111470758914948 -0.020243119448423386
0.022395607084035873 -0.011920558288693428 -0.020243119448423386
0.023775046691298485 -0.007373145781457424 -0.020243119448423386
0.024240829050540924 -0.002643994288519025 -0.020243119448423386
0.023775046691298485 0.0020851586014032364 -0.020243119448423386
0.022395584732294083 0.006632566452026367 -0.020243119448423386
0.020155511796474457 0.01082348171621561 -0.020243119448423386
0.017140833660960197 0.014496851712465286 -0.020243119448423386
0.013467449694871902 0.01751149445772171 -0.020243119448423386
0.00927653443068266 0.019751589745283127 -0.020243119448423386
0.004729124717414379 0.021131029352545738 -0.020243119448423386
7.077062491589459e-09 0.007613019086420536 -0.022579701617360115
-0.0020010420121252537 0.007415930740535259 -0.022579701617360115
-0.003925191704183817 0.006832250393927097 -0.022579701617360115
-0.005698493216186762 0.005884402431547642 -0.022579701617360115
-0.007252815645188093 0.004608804360032082 -0.022579701617360115
-0.008528404869139194 0.003054492175579071 -0.022579701617360115
-0.009476259350776672 0.001281186006963253 -0.022579701617360115
-0.010059943422675133 -0.0006429650820791721 -0.022579701617360115
-0.01025703176856041 -0.0026440119836479425 -0.022579701617360115
-0.010059943422675133 -0.004645060282200575 -0.022579701617360115
-0.009476259350776672 -0.006569206714630127 -0.022579701617360115
-0.008528404869139194 -0.008342515677213669 -0.022579701617360115
-0.007252815645188093 -0.009896829724311829 -0.022579701617360115
-0.005698493216186762 -0.011172429658472538 -0.022579701617360115
-0.003925187513232231 -0.012120275758206844 -0.022579701617360115
-0.00200103921815753 -0.012703962624073029 -0.022579701617360115
1.0419228146929527e-08 -0.012901044450700283 -0.022579701617360115
0.0020010601729154587 -0.012703962624073029 -0.022579701617360115
0.0039252107962965965 -0.012120275758206844 -0.022579701617360115
0.005698515102267265 -0.011172421276569366 -0.022579701617360115
0.007252827752381563 -0.009896829724311829 -0.022579701617360115
0.008528427220880985 -0.008342506363987923 -0.022579701617360115
0.009476272389292717 -0.006569201592355967 -0.022579701617360115
0.010059957392513752 -0.004645052831619978 -0.022579701617360115
0.01025704201310873 -0.00264400290325284 -0.022579701617360115
0.010059957392513752 -0.0006429532077163458 -0.022579701617360115
0.009476264007389545 0.0012811953201889992 -0.022579701617360115
0.008528418838977814 0.0030545005574822426 -0.022579701617360115
0.007252817042171955 0.004608814604580402 -0.022579701617360115
0.005698496475815773 0.005884402431547642 -0.022579701617360115
0.003925190772861242 0.00683225505053997 -0.022579701617360115
0.0020010415464639664 0.007415938191115856 -0.022579701617360115
0.028989845886826515 -0.02201436087489128 -0.01593203656375408
0.03221176192164421 -0.01598653569817543 -0.01593203656375408
-0.03486574441194534 -0.002644018968567252 -0.01593203656375408
-0.03419581055641174 -0.00944598764181137 -0.01593203656375408
0.03419582545757294 -0.009445961564779282 -0.015932032838463783
-0.032211750745773315 -0.015986554324626923 -0.01593203656375408
0.03486575558781624 -0.0026439877692610025 -0.01593203656375408
-0.028989793732762337 -0.022014392539858818 -0.01593203656375408
0.03419582545757294 0.004157986491918564 -0.01593203656375408
-0.024653812870383263 -0.02729782648384571 -0.01593203656375408
0.03221173584461212 0.010698561556637287 -0.01593203656375408
-0.01937035098671913 -0.031633853912353516 -0.01593203656375408
0.028989819809794426 0.016726380214095116 -0.01593203656375408
-0.013342526741325855 -0.034855764359235764 -0.01593203656375408
1.0747157830337528e-08 0.0322217158973217 -0.015932032838463783
-0.006801961455494165 0.0315517820417881 -0.01593203656375408
0.024653788655996323 0.02200981043279171 -0.01593203656375408
-0.006801953073590994 -0.03683982789516449 -0.01593203656375408
-0.013342543505132198 0.029567725956439972 -0.01593203656375408
0.01937032863497734 0.02634579874575138 -0.015932032838463783
2.2107826680439757e-08 -0.037509750574827194 -0.01593203656375408
-0.01937035098671913 0.02634579874575138 -0.01593203656375408
0.013342504389584064 0.029567748308181763 -0.015932032838463783
0.006801997777074575 -0.03683982789516449 -0.01593203656375408
-0.024653812870383263 0.022009778767824173 -0.01593203656375408
0.00680193305015564 0.03155180811882019 -0.015932032838463783
0.013342573307454586 -0.034855764359235764 -0.01593203656375408
-0.028989793732762337 0.016726354137063026 -0.01593203656375408
0.019370395690202713 -0.03163382411003113 -0.01593203656375408
-0.032211750745773315 0.010698528029024601 -0.01593203656375408
0.02465382218360901 -0.02729782648384571 -0.01593203656375408
-0.03419581055641174 0.004157946445047855 -0.015932032838463783
0.03520410135388374 -0.017225999385118484 -0.017885899171233177
0.037372469902038574 -0.010077835991978645 -0.017885899171233177
-0.03737245872616768 -0.010077863931655884 -0.017885899171233177
-0.03520409017801285 -0.017226018011569977 -0.017885899171233177
0.03810464218258858 -0.0026439859066158533 -0.017885899171233177
-0.031682830303907394 -0.023813821375370026 -0.017885899171233177
0.037372469902038574 0.004789862781763077 -0.017885899171233177
-0.026944046840071678 -0.029588062316179276 -0.017885899171233177
0.03520406037569046 0.011938029900193214 -0.017885899171233177
-0.021169772371649742 -0.03432687744498253 -0.017885899171233177
0.03168284147977829 0.018525807186961174 -0.017885899171233177
-0.014581989496946335 -0.037848103791475296 -0.017885899171233177
1.1314398307149531e-08 0.03546060249209404 -0.017885899171233177
-0.00743383402004838 0.03472842648625374 -0.017885899171233177
0.026944024488329887 0.024300042539834976 -0.017885899171233177
-0.007433825172483921 -0.04001646488904953 -0.017885899171233177
-0.014582009054720402 0.032560061663389206 -0.017885899171233177
0.0211697518825531 0.02903882786631584 -0.017885899171233177
2.3730478915240383e-08 -0.04074863716959953 -0.017885899171233177
-0.021169772371649742 0.02903882786631584 -0.017885899171233177
0.014581965282559395 0.032560091465711594 -0.017885899171233177
0.007433873601257801 -0.04001646488904953 -0.017885899171233177
-0.026944046840071678 0.02430000528693199 -0.017885899171233177
0.007433802355080843 0.034728456288576126 -0.017885899171233177
0.014582037925720215 -0.037848103791475296 -0.017885899171233177
-0.031682830303907394 0.018525775521993637 -0.017885899171233177
0.021169818937778473 -0.034326836466789246 -0.017885899171233177
-0.03520409017801285 0.01193799264729023 -0.017885899171233177
0.026944056153297424 -0.029588062316179276 -0.017885899171233177
-0.03737245872616768 0.004789818078279495 -0.017885899171233177
0.031682875007390976 -0.02381378412246704 -0.017885899171233177
-0.03810463100671768 -0.002644019667059183 -0.017885899171233177
0.03437291458249092 0.004193220287561417 0.11186894029378891
0.03237854689359665 0.010767667554318905 0.11186894029378891
-0.024781495332717896 -0.0274254959076643 0.11186894029378891
-0.01947067305445671 -0.03178396821022034 0.11186894029378891
0.029139941558241844 0.016826704144477844 0.11186894029378891
-0.01341162994503975 -0.035022586584091187 0.11186894029378891
5.15998266337192e-09 0.032402291893959045 0.11186894029378891
-0.006837192457169294 0.031728874891996384 0.11186894029378891
0.02478145994246006 0.022137494757771492 0.11186894029378891
-0.0068371836096048355 -0.037016913294792175 0.11186894029378891
-0.013411646708846092 0.029734553769230843 0.11186894029378891
0.019470639526844025 0.02649593912065029 0.11186894029378891
1.6579523531845552e-08 -0.03769031539559364 0.11186894029378891
-0.01947067305445671 0.02649593912065029 0.11186894029378891
0.013411598280072212 0.029734579846262932 0.11186894029378891
0.006837218068540096 -0.037016913294792175 0.11186894029378891
-0.024781495332717896 0.022137461230158806 0.11186894029378891
0.0068371533416211605 0.03172891214489937 0.11186894029378891
0.013411663472652435 -0.035022586584091187 0.11186894029378891
-0.029139939695596695 0.016826672479510307 0.11186894029378891
0.019470704719424248 -0.03178394213318825 0.11186894029378891
-0.032378580421209335 0.010767634026706219 0.11186894029378891
0.024781491607427597 -0.0274254959076643 0.11186894029378891
-0.03437291458249092 0.0041931793093681335 0.11186894029378891
0.02913997508585453 -0.022114671766757965 0.11186894029378891
-0.03504631668329239 -0.002644012216478586 0.11186894029378891
0.032378584146499634 -0.016055628657341003 0.11186894029378891
-0.03437291458249092 -0.009481208398938179 0.11186894029378891
0.03437291458249092 -0.009481181390583515 0.11186894029378891
-0.032378580421209335 -0.016055645421147346 0.11186894029378891
0.03504632040858269 -0.0026439810171723366 0.11186894029378891
-0.029139939695596695 -0.02211470529437065 0.11186894029378891
0.016885854303836823 -0.02791544236242771 -0.03576406463980675
0.021491607651114464 -0.024135611951351166 -0.03576406463980675
-0.028080137446522713 0.008987161330878735 -0.03576406463980675
-0.029809705913066864 0.0032855041790753603 -0.03576406463980675
0.025271471589803696 -0.019529826939105988 -0.03576406463980675
-0.03039371408522129 -0.002644011052325368 -0.03576406463980675
0.028080139309167862 -0.014275157824158669 -0.03576406463980675
-0.029809705913066864 -0.008573528379201889 -0.03576406463980675
0.02980971150100231 -0.008573506958782673 -0.03576406463980675
-0.028080137446522713 -0.014275171793997288 -0.03576406463980675
0.030393721535801888 -0.002643984043970704 -0.03576406463980675
-0.02527143806219101 -0.019529856741428375 -0.03576406463980675
0.02980971150100231 0.0032855381723493338 -0.03576406463980675
-0.021491607651114464 -0.024135611951351166 -0.03576406463980675
0.028080109506845474 0.008987189270555973 -0.03576406463980675
-0.016885824501514435 -0.02791547030210495 -0.03576406463980675
0.025271441787481308 0.014241854660212994 -0.03576406463980675
-0.011631160974502563 -0.030724139884114265 -0.03576406463980675
5.2038084952243935e-09 0.027749689295887947 -0.03576406463980675
-0.005929515231400728 0.02716568112373352 -0.03576406463980675
0.021491581574082375 0.01884760521352291 -0.03576406463980675
-0.005929507780820131 -0.032453712075948715 -0.03576406463980675
-0.011631174013018608 0.02543610706925392 -0.03576406463980675
0.016885800287127495 0.022627441212534904 -0.03576406463980675
1.5107318063201092e-08 -0.03303771838545799 -0.03576406463980675
-0.016885824501514435 0.022627441212534904 -0.03576406463980675
0.011631130240857601 0.02543613314628601 -0.03576406463980675
0.005929538514465094 -0.032453712075948715 -0.03576406463980675
-0.021491607651114464 0.018847577273845673 -0.03576406463980675
0.005929481703788042 0.027165710926055908 -0.03576406463980675
0.011631187982857227 -0.030724139884114265 -0.03576406463980675
-0.02527143806219101 0.014241832308471203 -0.03576406463980675
0.020125774666666985 -0.032764315605163574 -0.030625924468040466
-0.033467914909124374 0.01121884398162365 -0.030625924468040466
1.1149552392453188e-08 0.03358137607574463 -0.030625924468040466
0.02561524510383606 -0.02825924940407276 -0.030625924468040466
-0.03552934154868126 0.00442320154979825 -0.030625924468040466
0.030120356008410454 -0.02276974357664585 -0.030625924468040466
-0.03622541204094887 -0.002644019201397896 -0.030625924468040466
0.03346792235970497 -0.016506854444742203 -0.030625924468040466
-0.03552934154868126 -0.009711243212223053 -0.030625924468040466
0.035529352724552155 -0.009711218997836113 -0.030625924468040466
-0.033467914909124374 -0.016506873071193695 -0.030625924468040466
0.036225415766239166 -0.002643986837938428 -0.030625924468040466
-0.030120309442281723 -0.022769780829548836 -0.030625924468040466
0.035529352724552155 0.004423242527991533 -0.030625924468040466
-0.025615235790610313 -0.02825924940407276 -0.030625924468040466
0.03346788138151169 0.01121887844055891 -0.030625924468040466
-0.020125729963183403 -0.032764360308647156 -0.030625924468040466
0.030120322480797768 0.017481762915849686 -0.030625924468040466
-0.013862840831279755 -0.03611192852258682 -0.030625924468040466
-0.007067215628921986 0.03288530558347702 -0.030625924468040466
0.025615207850933075 0.022971227765083313 -0.030625924468040466
-0.007067207247018814 -0.03817334771156311 -0.030625924468040466
-0.013862859457731247 0.03082387149333954 -0.030625924468040466
0.02012571319937706 0.027476301416754723 -0.030625924468040466
2.2953315692575416e-08 -0.03886942192912102 -0.030625924468040466
-0.020125729963183403 0.027476301416754723 -0.030625924468040466
0.013862820342183113 0.030823908746242523 -0.030625924468040466
0.0070672533474862576 -0.03817334771156311 -0.030625924468040466
-0.025615235790610313 0.022971192374825478 -0.030625924468040466
0.0070671867579221725 0.032885342836380005 -0.030625924468040466
0.013862889260053635 -0.03611192852258682 -0.030625924468040466
-0.030120309442281723 0.017481734976172447 -0.030625924468040466
