-0.07845677435398102 0.09938859939575195 -0.033640775829553604
-0.07845678925514221 -0.09937702864408493 -0.033640775829553604
0.07847970724105835 0.09938859939575195 -0.033640775829553604
0.07847969233989716 -0.09937702864408493 -0.033640775829553604
-0.07845678180456161 0.05894078314304352 -0.033640775829553604
-0.07845678180456161 0.02035541832447052 -0.033640775829553604
-0.07845678180456161 -0.019397703930735588 -0.033640775829553604
-0.07845678180456161 -0.05992931127548218 -0.033640775829553604
0.07847969979047775 -0.059929318726062775 -0.033640775829553604
0.07847969979047775 -0.019397711381316185 -0.033640775829553604
0.07847969979047775 0.020355410873889923 -0.033640775829553604
0.07847969979047775 0.05894077569246292 -0.033640775829553604
0.026776928454637527 0.09938859939575195 -0.033640775829553604
0.015130030922591686 0.09938859939575195 -0.033640775829553604
-0.016257263720035553 0.09938859939575195 -0.033640775829553604
-0.025710782036185265 0.09938859939575195 -0.033640775829553604
-0.02571078948676586 -0.09937702864408493 -0.033640775829553604
-0.0162572730332613 -0.09937702864408493 -0.033640775829553604
0.01513002160936594 -0.09937702864408493 -0.033640775829553604
0.02677692286670208 -0.09937702864408493 -0.033640775829553604
-0.025710783898830414 0.05894078314304352 -0.033640775829553604
-0.016257265582680702 0.05894078314304352 -0.033640775829553604
0.015130029059946537 0.05894078314304352 -0.033640775829553604
0.026776928454637527 0.05894078314304352 -0.033640775829553604
-0.025710785761475563 0.02035541646182537 -0.033640775829553604
-0.01625726744532585 0.02035541459918022 -0.033640775829553604
0.015130027197301388 0.02035541459918022 -0.033640775829553604
0.026776926591992378 0.020355412736535072 -0.033640775829553604
-0.025710785761475563 -0.019397705793380737 -0.033640775829553604
-0.016257269307971 -0.019397707656025887 -0.033640775829553604
0.015130025334656239 -0.019397707656025887 -0.033640775829553604
0.026776926591992378 -0.019397709518671036 -0.033640775829553604
-0.025710787624120712 -0.059929318726062775 -0.033640775829553604
-0.01625727117061615 -0.059929318726062775 -0.033640775829553604
0.01513002347201109 -0.059929318726062775 -0.033640775829553604
0.02677692472934723 -0.059929318726062775 -0.033640775829553604
-0.08967475593090057 0.11359928548336029 0.02119678072631359
-0.08967477083206177 -0.11358616501092911 0.02119678072631359
0.08970073610544205 0.1135992705821991 0.02119678072631359
0.08970072865486145 -0.1135861799120903 0.02119678072631359
-0.08967476338148117 0.06736817955970764 0.02119678072631359
-0.08967476338148117 0.023265810683369637 0.02119678072631359
-0.08967476338148117 -0.022171271964907646 0.02119678072631359
-0.08967476338148117 -0.0684981495141983 0.02119678072631359
0.08970072865486145 -0.0684981644153595 0.02119678072631359
0.08970072865486145 -0.022171279415488243 0.02119678072631359
0.08970072865486145 0.02326580323278904 0.02119678072631359
0.08970072865486145 0.06736816465854645 0.02119678072631359
0.030605431646108627 0.1135992780327797 0.02119678072631359
0.017293239012360573 0.1135992780327797 0.02119678072631359
-0.01858186163008213 0.1135992780327797 0.02119678072631359
-0.029387054964900017 0.1135992780327797 0.02119678072631359
-0.029387066140770912 -0.1135861724615097 0.02119678072631359
-0.018581872805953026 -0.1135861724615097 0.02119678072631359
0.017293227836489677 -0.1135861724615097 0.02119678072631359
0.030605420470237732 -0.1135861724615097 0.02119678072631359
-0.08967475593090057 0.11359928548336029 0.02663579396903515
-0.08967477083206177 -0.11358616501092911 0.02663579396903515
0.08970073610544205 0.1135992705821991 0.02663579396903515
0.08970072865486145 -0.1135861799120903 0.02663579396903515
-0.08967476338148117 0.06736817955970764 0.02663579396903515
-0.08967476338148117 0.023265810683369637 0.02663579396903515
-0.08967476338148117 -0.022171271964907646 0.02663579396903515
-0.08967476338148117 -0.0684981495141983 0.02663579396903515
0.08970072865486145 -0.0684981644153595 0.02663579396903515
0.08970072865486145 -0.022171279415488243 0.02663579396903515
0.08970072865486145 0.02326580323278904 0.02663579396903515
0.08970072865486145 0.06736816465854645 0.02663579396903515
0.030605431646108627 0.1135992780327797 0.02663579396903515
0.017293239012360573 0.1135992780327797 0.02663579396903515
-0.01858186163008213 0.1135992780327797 0.02663579396903515
-0.029387054964900017 0.1135992780327797 0.02663579396903515
-0.029387066140770912 -0.1135861724615097 0.02663579396903515
-0.018581872805953026 -0.1135861724615097 0.02663579396903515
0.017293227836489677 -0.1135861724615097 0.02663579396903515
0.030605420470237732 -0.1135861724615097 0.02663579396903515
-0.08372240513563156 0.10605897009372711 0.02092382311820984
-0.08372242748737335 0.06289652734994888 0.020923830568790436
-0.017348412424325943 0.10605897009372711 0.020923830568790436
-0.0274363961070776 0.10605897009372711 0.02092382311820984
-0.08372242003679276 0.021721534430980682 0.02092382311820984
-0.08372243493795395 -0.10604668408632278 0.020923830568790436
-0.027436405420303345 -0.10604668408632278 0.02092382311820984
-0.08372242003679276 -0.020699594169855118 0.02092382311820984
-0.01734842360019684 -0.10604668408632278 0.02092382311820984
-0.08372242748737335 -0.06395146250724792 0.02092382311820984
0.016145411878824234 -0.10604668408632278 0.02092382311820984
0.08374675363302231 -0.10604668408632278 0.020923830568790436
0.0837467610836029 -0.06395146250724792 0.020923830568790436
0.028573988005518913 -0.10604668408632278 0.020923830568790436
0.0837467685341835 0.10605897009372711 0.020923830568790436
0.02857399918138981 0.10605897009372711 0.020923830568790436
0.0837467610836029 -0.020699601620435715 0.02092382311820984
0.01614542305469513 0.10605897009372711 0.020923830568790436
0.0837467610836029 0.021721525117754936 0.020923830568790436
0.0837467610836029 0.06289652734994888 0.020923830568790436
-0.08363483846187592 0.06283073872327805 0.018727488815784454
-0.0274076946079731 0.10594801604747772 0.018727488815784454
-0.08363483101129532 0.021698810160160065 0.018727483227849007
-0.027407702058553696 -0.10593573749065399 0.018727483227849007
-0.08363483101129532 -0.020677940919995308 0.018727483227849007
-0.017330270260572433 -0.10593573749065399 0.018727483227849007
-0.08363483846187592 -0.06388456374406815 0.018727483227849007
0.016128525137901306 -0.10593573749065399 0.018727488815784454
0.08365916460752487 -0.06388456374406815 0.018727488815784454
0.028544098138809204 -0.10593573749065399 0.018727488815784454
0.02854410745203495 0.10594801604747772 0.018727488815784454
0.08365916460752487 -0.020677946507930756 0.018727483227849007
0.016128532588481903 0.10594801604747772 0.018727488815784454
0.08365916460752487 0.021698802709579468 0.018727488815784454
-0.08363482356071472 0.10594801604747772 0.018727488815784454
-0.017330262809991837 0.10594801604747772 0.018727488815784454
-0.08363484591245651 -0.10593573749065399 0.018727488815784454
0.08365915715694427 -0.10593573749065399 0.018727488815784454
0.08365917205810547 0.10594801604747772 0.018727488815784454
0.08365916460752487 0.06283073872327805 0.018727488815784454
0.08970072865486145 0.06736816465854645 0.021782448515295982
0.08970073610544205 0.1135992705821991 0.021782448515295982
-0.018581872805953026 -0.1135861724615097 0.021782448515295982
0.017293227836489677 -0.1135861724615097 0.021782448515295982
0.08970072865486145 0.02326580323278904 0.021782448515295982
-0.08967475593090057 0.11359928548336029 0.021782448515295982
-0.08967476338148117 0.06736817955970764 0.021782448515295982
0.030605420470237732 -0.1135861724615097 0.021782448515295982
0.030605431646108627 0.1135992780327797 0.021782448515295982
-0.08967476338148117 0.023265810683369637 0.021782448515295982
0.017293239012360573 0.1135992780327797 0.021782448515295982
-0.08967476338148117 -0.022171271964907646 0.021782448515295982
-0.01858186163008213 0.1135992780327797 0.021782448515295982
-0.08967476338148117 -0.0684981495141983 0.021782448515295982
-0.029387054964900017 0.1135992780327797 0.021782448515295982
0.08970072865486145 -0.1135861799120903 0.021782448515295982
0.08970072865486145 -0.0684981644153595 0.021782448515295982
-0.08967477083206177 -0.11358616501092911 0.021782448515295982
-0.029387066140770912 -0.1135861724615097 0.021782448515295982
0.08970072865486145 -0.022171279415488243 0.021782448515295982
-0.08967475593090057 0.11359928548336029 0.02663579396903515
-0.08967477083206177 -0.11358616501092911 0.02663579396903515
0.08970073610544205 0.1135992705821991 0.02663579396903515
0.08970072865486145 -0.1135861799120903 0.02663579396903515
-0.08967476338148117 0.06736817955970764 0.02663579396903515
-0.08967476338148117 0.023265810683369637 0.02663579396903515
-0.08967476338148117 -0.022171271964907646 0.02663579396903515
-0.08967476338148117 -0.0684981495141983 0.02663579396903515
0.08970072865486145 -0.0684981644153595 0.02663579396903515
0.08970072865486145 -0.022171279415488243 0.02663579396903515
0.08970072865486145 0.02326580323278904 0.02663579396903515
0.08970072865486145 0.06736816465854645 0.02663579396903515
0.030605431646108627 0.1135992780327797 0.02663579396903515
0.017293239012360573 0.1135992780327797 0.02663579396903515
-0.01858186163008213 0.1135992780327797 0.02663579396903515
-0.029387054964900017 0.1135992780327797 0.02663579396903515
-0.029387066140770912 -0.1135861724615097 0.02663579396903515
-0.018581872805953026 -0.1135861724615097 0.02663579396903515
0.017293227836489677 -0.1135861724615097 0.02663579396903515
0.030605420470237732 -0.1135861724615097 0.02663579396903515
-0.08566362410783768 0.10851806402206421 0.02663579396903515
-0.08566364645957947 -0.10850553214550018 0.02663579396903515
0.085688516497612 0.10851806402206421 0.02663579396903515
0.0856885015964508 -0.10850553214550018 0.02663579396903515
-0.08566363900899887 0.06435485929250717 0.02663579396903515
-0.08566363900899887 0.022225165739655495 0.02663579396903515
-0.08566363900899887 -0.021179545670747757 0.02663579396903515
-0.08566363900899887 -0.06543426215648651 0.02663579396903515
0.0856885090470314 -0.06543426960706711 0.02663579396903515
0.0856885090470314 -0.021179553121328354 0.02663579396903515
0.0856885090470314 0.02222515642642975 0.02663579396903515
0.0856885090470314 0.06435484439134598 0.02663579396903515
0.029236499220132828 0.10851806402206421 0.02663579396903515
0.016519756987690926 0.10851806402206421 0.02663579396903515
-0.01775067113339901 0.10851806402206421 0.02663579396903515
-0.02807256020605564 0.10851806402206421 0.02663579396903515
-0.02807256579399109 -0.10850553214550018 0.02663579396903515
-0.017750682309269905 -0.10850553214550018 0.02663579396903515
0.01651974767446518 -0.10850553214550018 0.02663579396903515
0.02923649176955223 -0.10850553214550018 0.02663579396903515
-0.08123399317264557 0.10589419305324554 0.02663579396903515
-0.08123400807380676 -0.10588192939758301 0.02663579396903515
0.08125767856836319 0.10589419305324554 0.02663579396903515
0.081257663667202 -0.10588192939758301 0.02663579396903515
-0.08123400062322617 0.06279880553483963 0.02663579396903515
-0.08123400062322617 0.021687785163521767 0.02663579396903515
-0.08123400062322617 -0.020667430013418198 0.02663579396903515
-0.08123400062322617 -0.06385208666324615 0.02663579396903515
0.08125767111778259 -0.06385210156440735 0.02663579396903515
0.08125767111778259 -0.020667439326643944 0.02663579396903515
0.08125767111778259 0.02168777585029602 0.02663579396903515
0.08125767111778259 0.06279879808425903 0.02663579396903515
0.027724748477339745 0.10589419305324554 0.02663579396903515
0.01566557213664055 0.10589419305324554 0.02663579396903515
-0.016832759603857994 0.10589419305324554 0.02663579396903515
-0.026620911434292793 0.10589419305324554 0.02663579396903515
-0.02662091702222824 -0.10588192939758301 0.02663579396903515
-0.01683277077972889 -0.10588192939758301 0.02663579396903515
0.015665564686059952 -0.10588192939758301 0.02663579396903515
0.027724739164114 -0.10588192939758301 0.02663579396903515
-0.07993240654468536 0.10419750958681107 0.02663579396903515
-0.07993242144584656 -0.10418542474508286 0.02663579396903515
0.07995574176311493 0.10419750958681107 0.02663579396903515
0.07995572686195374 -0.10418542474508286 0.02663579396903515
-0.07993241399526596 0.06179262325167656 0.02663579396903515
-0.07993241399526596 0.021340295672416687 0.02663579396903515
-0.07993241399526596 -0.020336279645562172 0.02663579396903515
-0.07993241399526596 -0.06282901018857956 0.02663579396903515
0.07995573431253433 -0.06282901763916016 0.02663579396903515
0.07995573431253433 -0.02033628709614277 0.02663579396903515
0.07995573431253433 0.02134029008448124 0.02663579396903515
0.07995573431253433 0.06179261580109596 0.02663579396903515
0.027280539274215698 0.10419750958681107 0.02663579396903515
0.015414583496749401 0.10419750958681107 0.02663579396903515
-0.016563042998313904 0.10419750958681107 0.02663579396903515
-0.026194363832473755 0.10419750958681107 0.02663579396903515
-0.026194371283054352 -0.10418542474508286 0.02663579396903515
-0.0165630541741848 -0.10418542474508286 0.02663579396903515
0.01541457325220108 -0.10418542474508286 0.02663579396903515
0.027280529960989952 -0.10418542474508286 0.02663579396903515
-0.07574350386857986 0.09595148265361786 -0.02554752491414547
-0.07574351131916046 -0.09594029188156128 -0.02554752491414547
0.0757656842470169 0.09595148265361786 -0.02554752491414547
0.07576566934585571 -0.09594029188156128 -0.02554752491414547
-0.07574350386857986 0.056902460753917694 -0.02554752491414547
-0.07574350386857986 0.01965148374438286 -0.02554752491414547
-0.07574350386857986 -0.018726862967014313 -0.02554752491414547
-0.07574350386857986 -0.05785677954554558 -0.02554752491414547
0.07576567679643631 -0.057856786996126175 -0.02554752491414547
0.07576567679643631 -0.01872687041759491 -0.02554752491414547
0.07576567679643631 0.01965147629380226 -0.02554752491414547
0.07576567679643631 0.0569024533033371 -0.02554752491414547
0.025850936770439148 0.09595148265361786 -0.02554752491414547
0.014606818556785583 0.09595148265361786 -0.02554752491414547
-0.01569501869380474 0.09595148265361786 -0.02554752491414547
-0.024821605533361435 0.09595148265361786 -0.02554752491414547
-0.024821612983942032 -0.09594029188156128 -0.02554752491414547
-0.01569502428174019 -0.09594029188156128 -0.02554752491414547
0.014606809243559837 -0.09594029188156128 -0.02554752491414547
0.02585092931985855 -0.09594029188156128 -0.02554752491414547
-0.06811998784542084 0.08629419654607773 -0.02554752491414547
-0.06812000274658203 -0.08628404140472412 -0.02554752491414547
0.06814009696245193 0.08629419654607773 -0.02554752491414547
0.06814008206129074 -0.08628404140472412 -0.02554752491414547
-0.06811999529600143 0.05117538571357727 -0.02554752491414547
-0.06811999529600143 0.017673641443252563 -0.02554752491414547
-0.06811999529600143 -0.016842003911733627 -0.02554752491414547
-0.06811999529600143 -0.052033573389053345 -0.02554752491414547
0.06814008951187134 -0.05203358456492424 -0.02554752491414547
0.06814008951187134 -0.016842011362314224 -0.02554752491414547
0.06814008951187134 0.017673632130026817 -0.02554752491414547
0.06814008951187134 0.05117538198828697 -0.02554752491414547
0.023249169811606407 0.08629419654607773 -0.02554752491414547
0.013136746361851692 0.08629419654607773 -0.02554752491414547
-0.014115267433226109 0.08629419654607773 -0.02554752491414547
-0.022323280572891235 0.08629419654607773 -0.02554752491414547
-0.022323288023471832 -0.08628404140472412 -0.02554752491414547
-0.01411527581512928 -0.08628404140472412 -0.02554752491414547
0.01313673984259367 -0.08628404140472412 -0.02554752491414547
0.02324916236102581 -0.08628404140472412 -0.02554752491414547
-0.04767579585313797 0.06039596349000931 -0.02554752491414547
-0.04767580330371857 -0.06038861721754074 -0.02554752491414547
0.04769032821059227 0.06039595603942871 -0.02554752491414547
0.04769032076001167 -0.06038862466812134 -0.02554752491414547
-0.04767579957842827 0.03581690415740013 -0.02554752491414547
-0.04767579957842827 0.012369596399366856 -0.02554752491414547
-0.04767579957842827 -0.01178731583058834 -0.02554752491414547
-0.04767579957842827 -0.03641729801893234 -0.02554752491414547
0.04769032448530197 -0.03641730546951294 -0.02554752491414547
0.04769032448530197 -0.01178731955587864 -0.02554752491414547
0.04769032448530197 0.012369592674076557 -0.02554752491414547
0.04769032448530197 0.035816896706819534 -0.02554752491414547
0.01627192460000515 0.06039595603942871 -0.02554752491414547
0.009194415993988514 0.06039595603942871 -0.02554752491414547
-0.009878805838525295 0.06039595603942871 -0.02554752491414547
-0.015623456798493862 0.06039595603942871 -0.02554752491414547
-0.015623464249074459 -0.06038862466812134 -0.02554752491414547
-0.009878812357783318 -0.06038862466812134 -0.02554752491414547
0.009194411337375641 -0.06038862466812134 -0.02554752491414547
0.01627192273736 -0.06038862466812134 -0.02554752491414547
-0.031146952882409096 0.03945760801434517 -0.02554752491414547
-0.031146956607699394 -0.03945254534482956 -0.02554752491414547
0.031156981363892555 0.03945760801434517 -0.02554752491414547
0.031156979501247406 -0.03945254534482956 -0.02554752491414547
-0.031146952882409096 0.023399781435728073 -0.02554752491414547
-0.031146952882409096 0.008081353269517422 -0.02554752491414547
-0.031146952882409096 -0.007700675167143345 -0.02554752491414547
-0.031146956607699394 -0.02379176765680313 -0.02554752491414547
0.031156979501247406 -0.02379177138209343 -0.02554752491414547
0.031156981363892555 -0.007700677029788494 -0.02554752491414547
0.031156981363892555 0.008081350475549698 -0.02554752491414547
0.031156981363892555 0.023399777710437775 -0.02554752491414547
0.010630928911268711 0.03945760801434517 -0.02554752491414547
0.006007098592817783 0.03945760801434517 -0.02554752491414547
-0.0064536877907812595 0.03945760801434517 -0.02554752491414547
-0.010206744074821472 0.03945760801434517 -0.02554752491414547
-0.01020674780011177 -0.03945254534482956 -0.02554752491414547
-0.006453691516071558 -0.03945254534482956 -0.02554752491414547
0.006007094867527485 -0.03945254534482956 -0.02554752491414547
0.010630924254655838 -0.03945254534482956 -0.02554752491414547
-0.01210904959589243 0.01534082181751728 -0.02554752491414547
-0.012109052389860153 -0.015338387340307236 -0.02554752491414547
0.012113882228732109 0.015340818092226982 -0.02554752491414547
0.01211388036608696 -0.015338387340307236 -0.02554752491414547
-0.012109050527215004 0.009097756817936897 -0.02554752491414547
-0.012109050527215004 0.0031421571038663387 -0.02554752491414547
-0.012109050527215004 -0.00299368379637599 -0.02554752491414547
-0.012109050527215004 -0.009249682538211346 -0.02554752491414547
0.012113881297409534 -0.009249684400856495 -0.02554752491414547
0.012113881297409534 -0.002993684494867921 -0.02554752491414547
0.012113881297409534 0.0031421559397131205 -0.02554752491414547
0.012113881297409534 0.009097754023969173 -0.02554752491414547
0.00413363054394722 0.015340819954872131 -0.02554752491414547
0.00233594817109406 0.015340819954872131 -0.02554752491414547
-0.0025086388923227787 0.015340819954872131 -0.02554752491414547
-0.003967776894569397 0.015340819954872131 -0.02554752491414547
-0.003967778291553259 -0.015338387340307236 -0.02554752491414547
-0.0025086405221372843 -0.015338387340307236 -0.02554752491414547
0.0023359465412795544 -0.015338387340307236 -0.02554752491414547
0.004133629612624645 -0.015338387340307236 -0.02554752491414547
-0.07940018177032471 0.05964949354529381 -0.024622777476906776
-0.02601994201540947 0.10058366507291794 -0.024622777476906776
-0.07940017431974411 0.02060016803443432 -0.024622775614261627
-0.026019949465990067 -0.10057196021080017 -0.024622777476906776
-0.07940017431974411 -0.019630948081612587 -0.024622775614261627
-0.016452761366963387 -0.10057196021080017 -0.024622775614261627
-0.07940018177032471 -0.060649920254945755 -0.024622775614261627
0.01531193871051073 -0.10057196021080017 -0.024622775614261627
0.07942334562540054 -0.06064992770552635 -0.024622775614261627
0.02709888480603695 -0.10057196021080017 -0.024622775614261627
0.027098892256617546 0.10058366507291794 -0.024622775614261627
0.07942334562540054 -0.019630955532193184 -0.024622775614261627
0.015311947092413902 0.10058366507291794 -0.024622775614261627
0.07942334562540054 0.02060016244649887 -0.024622775614261627
-0.07940017431974411 0.10058366507291794 -0.024622777476906776
-0.01645275391638279 0.10058366507291794 -0.024622777476906776
-0.0794001892209053 -0.10057196021080017 -0.024622775614261627
0.07942333072423935 -0.10057196021080017 -0.024622775614261627
0.07942335307598114 0.10058366507291794 -0.024622775614261627
0.07942334562540054 0.05964948982000351 -0.024622777476906776
